# .PCD v0.7 - Point Cloud Data file format
VERSION 0.7
FIELDS x y z
SIZE 4 4 4
TYPE F F F
COUNT 1 1 1
WIDTH 1547
HEIGHT 1
VIEWPOINT 0 0 0 1 0 0 0
POINTS 1547
DATA ascii
-5.93225 19.04875 -0.96399999
-5.9305 19.057751 -0.97425002
-5.9285002 19.0585 -0.97125
-5.92975 19.05625 -0.96850002
-5.9289999 19.0595 -0.96875
-5.9295001 19.060499 -0.97125
-5.9302502 19.060249 -0.96899998
-5.9285002 19.06225 -0.96974999
-5.9274998 19.061501 -0.97474998
-5.9252501 19.060499 -0.97600001
-5.92625 19.06325 -0.97500002
-5.9245 19.064501 -0.97525001
-5.9260001 19.06675 -0.97474998
-5.9252501 19.066 -0.97299999
-5.9239998 19.0655 -0.97375
-5.9204998 19.069 -0.97600001
-5.92275 19.071501 -0.97399998
-5.9250002 19.06625 -0.96850002
-5.9222498 19.066999 -0.96925002
-5.9250002 19.068001 -0.97025001
-5.9299998 19.057751 -0.96749997
-5.9307499 19.058001 -0.96600002
-5.9307499 19.056749 -0.96074998
-5.9295001 19.05625 -0.96149999
-5.9264998 19.059 -0.9655
-5.9267502 19.061001 -0.96474999
-5.9250002 19.062 -0.96074998
-5.9172502 19.063749 -0.97850001
-5.9182501 19.06325 -0.96375
-5.9252501 19.07375 -0.99800003
-5.9235001 19.0755 -0.99825001
-5.9225001 19.074499 -0.9975
-5.9222498 19.077499 -0.99699998
-5.9207501 19.07975 -0.9975
-5.9239998 19.07225 -0.99425
-5.9207501 19.074249 -0.99599999
-5.9217501 19.077749 -0.99524999
-5.9222498 19.077499 -0.99274999
-5.92275 19.080999 -0.99699998
-5.9212499 19.08075 -0.99550003
-5.9207501 19.08 -0.995
-5.9219999 19.08025 -0.99374998
-5.9172502 19.078501 -0.99599999
-5.9162502 19.07925 -0.99475002
-5.9162502 19.0805 -0.99949998
-5.9162502 19.084749 -0.99975002
-5.9134998 19.085251 -0.99949998
-5.9159999 19.084249 -0.99650002
-5.9145002 19.08675 -0.99650002
-5.915 19.08725 -0.99650002
-5.9187498 19.081249 -0.99575001
-5.9177499 19.0835 -0.99599999
-5.9187498 19.08025 -0.99274999
-5.91675 19.081249 -0.99325001
-5.915 19.0835 -0.99599999
-5.9155002 19.082251 -0.99475002
-5.9152498 19.08275 -0.99325001
-5.915 19.08275 -0.99325001
-5.91325 19.085251 -0.99425
-5.9159999 19.08725 -0.99449998
-5.9134998 19.087749 -0.99524999
-5.9145002 19.085751 -0.99349999
-5.9134998 19.085501 -0.99225003
-5.9109998 19.085501 -0.99650002
-5.9089999 19.08725 -0.99774998
-5.9092498 19.084 -0.99575001
-5.9092498 19.087749 -0.99274999
-5.914 19.087999 -0.99874997
-5.9124999 19.0895 -0.99550003
-5.9124999 19.087999 -0.99400002
-5.9085002 19.088499 -0.99825001
-5.9107499 19.09 -0.99975002
-5.9107499 19.09075 -0.99924999
-5.9092498 19.091749 -0.99825001
-5.9117498 19.09 -0.99699998
-5.9092498 19.0905 -0.9975
-5.9087501 19.092251 -0.99975002
-5.9072499 19.0935 -1
-5.9042501 19.093 -0.99924999
-5.9054999 19.095751 -0.99800003
-5.9050002 19.09425 -0.99650002
-5.9089999 19.0895 -0.99475002
-5.9099998 19.089001 -0.99274999
-5.9077501 19.091249 -0.99475002
-5.9077501 19.095751 -0.99449998
-5.9074998 19.092751 -0.99274999
-5.9045 19.09725 -0.99975002
-5.9037499 19.099751 -0.99975002
-5.9039998 19.098499 -0.99849999
-5.9022498 19.099501 -0.99874997
-5.9032502 19.099001 -0.99725002
-5.9012499 19.101999 -0.99900001
-5.9039998 19.10075 -0.99699998
-5.9022498 19.102501 -0.99725002
-5.902 19.102249 -0.99800003
-5.8982501 19.10075 -0.99924999
-5.89925 19.1035 -0.99949998
-5.8997502 19.102501 -0.99900001
-5.8972502 19.102249 -0.99949998
-5.89675 19.1015 -0.9975
-5.8994999 19.102501 -0.99774998
-5.8994999 19.101999 -0.99699998
-5.9029999 19.09725 -0.99325001
-5.9015002 19.1035 -0.99374998
-5.8969998 19.101999 -0.99475002
-5.89925 19.101999 -0.99225003
-5.8982501 19.105749 -0.99949998
-5.89675 19.105749 -0.99849999
-5.8990002 19.105249 -0.99774998
-5.8962498 19.106001 -0.99774998
-5.8965001 19.106251 -0.99699998
-5.9004998 19.1045 -0.99599999
-5.90025 19.105749 -0.99325001
-5.8977499 19.105499 -0.99550003
-5.8940001 19.105249 -0.99900001
-5.8885002 19.106501 -1
-5.8895001 19.104 -0.99699998
-5.8887501 19.107 -0.99774998
-5.8924999 19.10825 -0.99774998
-5.8907499 19.1085 -0.99975002
-5.8902502 19.108999 -0.99825001
-5.8892498 19.108749 -0.99650002
-5.8959999 19.105249 -0.99550003
-5.8934999 19.105499 -0.99575001
-5.8924999 19.105749 -0.99575001
-5.89575 19.105249 -0.99325001
-5.8912501 19.105749 -0.99425
-5.8917499 19.106251 -0.99425
-5.8887501 19.107 -0.99575001
-5.8899999 19.107 -0.99475002
-5.8912501 19.108 -0.99299997
-5.8892498 19.109501 -0.99349999
-5.8895001 19.108 -0.99299997
-5.9215002 19.073 -0.991
-5.9225001 19.07275 -0.98874998
-5.9222498 19.07375 -0.9885
-5.9222498 19.074249 -0.98925
-5.9219999 19.077 -0.99199998
-5.9229999 19.0765 -0.99000001
-5.9222498 19.07675 -0.98949999
-5.9235001 19.07325 -0.98675001
-5.9237499 19.07225 -0.98525
-5.9229999 19.075001 -0.98575002
-5.9219999 19.077 -0.98799998
-5.9219999 19.077499 -0.98549998
-5.9207501 19.0805 -0.98799998
-5.9237499 19.080999 -0.98474997
-5.9242501 19.0725 -0.98325002
-5.9242501 19.074499 -0.98199999
-5.9229999 19.074751 -0.9835
-5.9225001 19.075001 -0.9835
-5.921 19.07575 -0.98150003
-5.92275 19.077999 -0.9835
-5.9232502 19.077 -0.98199999
-5.9204998 19.07975 -0.98124999
-5.9207501 19.077999 -0.98100001
-5.9254999 19.07325 -0.97724998
-5.9212499 19.08 -0.98374999
-5.9207501 19.081499 -0.98250002
-5.921 19.0805 -0.97874999
-5.9242501 19.0735 -0.97575003
-5.9239998 19.07275 -0.97350001
-5.92275 19.074249 -0.97224998
-5.9222498 19.074751 -0.97224998
-5.9235001 19.078751 -0.97525001
-5.9212499 19.07975 -0.97575003
-5.9215002 19.07675 -0.96950001
-5.9219999 19.077999 -0.96675003
-5.9215002 19.077 -0.96474999
-5.91925 19.078751 -0.98774999
-5.9165001 19.081249 -0.991
-5.9194999 19.0825 -0.99049997
-5.9165001 19.0825 -0.99124998
-5.9165001 19.081249 -0.98900002
-5.9165001 19.08375 -0.98975003
-5.9147501 19.0835 -0.99124998
-5.9162502 19.085751 -0.98825002
-5.9155002 19.084999 -0.99124998
-5.9127498 19.084749 -0.99199998
-5.9130001 19.084749 -0.99175
-5.915 19.085501 -0.99000001
-5.9152498 19.084 -0.98874998
-5.91325 19.085251 -0.99000001
-5.9145002 19.0875 -0.9885
-5.9175 19.08025 -0.98799998
-5.9190001 19.081499 -0.98575002
-5.9177499 19.0835 -0.986
-5.9159999 19.0805 -0.98650002
-5.9147501 19.0835 -0.98650002
-5.9159999 19.0805 -0.98449999
-5.9130001 19.085251 -0.98774999
-5.9159999 19.084 -0.98474997
-5.9102502 19.084249 -0.99000001
-5.9109998 19.085501 -0.98949999
-5.9117498 19.08675 -0.98699999
-5.9172502 19.07975 -0.98325002
-5.9182501 19.0795 -0.98124999
-5.9177499 19.07975 -0.98199999
-5.9200001 19.07925 -0.97874999
-5.9177499 19.07975 -0.97974998
-5.9197502 19.078751 -0.97775
-5.9194999 19.078501 -0.97675002
-5.9182501 19.08075 -0.98400003
-5.9159999 19.08075 -0.98199999
-5.9177499 19.084499 -0.98325002
-5.9127498 19.084749 -0.98299998
-5.91225 19.084749 -0.98275
-5.9159999 19.086 -0.98325002
-5.9137502 19.0865 -0.98400003
-5.91225 19.08675 -0.98224998
-5.9180002 19.08 -0.97825003
-5.9180002 19.08025 -0.97750002
-5.9155002 19.084999 -0.9795
-5.9142499 19.0865 -0.97874999
-5.91225 19.084749 -0.97675002
-5.9147501 19.086 -0.977
-5.9127498 19.08675 -0.97724998
-5.9130001 19.089001 -0.99175
-5.9127498 19.0895 -0.99049997
-5.91575 19.088751 -0.98624998
-5.91325 19.088249 -0.98699999
-5.9134998 19.087999 -0.98525
-5.9107499 19.0895 -0.99199998
-5.9099998 19.088751 -0.99049997
-5.9107499 19.08975 -0.98925
-5.9077501 19.09025 -0.99049997
-5.9085002 19.095501 -0.991
-5.9085002 19.094 -0.98949999
-5.9057498 19.095501 -0.98925
-5.9107499 19.09025 -0.98799998
-5.9087501 19.09 -0.98799998
-5.9082499 19.09025 -0.98675001
-5.9074998 19.092751 -0.98774999
-5.908 19.094 -0.98525
-5.908 19.094 -0.98474997
-5.908 19.09775 -0.98975003
-5.9042501 19.09675 -0.98825002
-5.9042501 19.098249 -0.98675001
-5.9124999 19.087999 -0.98049998
-5.91325 19.0895 -0.9795
-5.9112501 19.088751 -0.98250002
-5.9109998 19.091 -0.98325002
-5.9109998 19.091 -0.98100001
-5.9067502 19.08975 -0.98400003
-5.9087501 19.0935 -0.98275
-5.9077501 19.09375 -0.98325002
-5.9070001 19.0945 -0.98325002
-5.9052501 19.094999 -0.98224998
-5.9070001 19.095249 -0.98150003
-5.9077501 19.09 -0.97850001
-5.9089999 19.09425 -0.97974998
-5.9107499 19.091999 -0.97775
-5.9092498 19.092251 -0.97750002
-5.9082499 19.095751 -0.97775
-5.9087501 19.0945 -0.97624999
-5.9077501 19.09375 -0.97874999
-5.9050002 19.094749 -0.97850001
-5.9060001 19.094749 -0.97675002
-5.9057498 19.09725 -0.98175001
-5.9042501 19.096001 -0.98075002
-5.9037499 19.0945 -0.98549998
-5.9007502 19.095249 -0.98425001
-5.90275 19.10125 -0.99075001
-5.9032502 19.10375 -0.99199998
-5.9012499 19.103001 -0.991
-5.9022498 19.103001 -0.9885
-5.8994999 19.101999 -0.99000001
-5.8969998 19.10375 -0.98975003
-5.89675 19.102249 -0.9885
-5.90275 19.098499 -0.98575002
-5.9037499 19.10025 -0.98799998
-5.9007502 19.101 -0.98774999
-5.9007502 19.10025 -0.98675001
-5.90025 19.102249 -0.98650002
-5.8982501 19.103251 -0.98675001
-5.8975 19.102751 -0.98750001
-5.8994999 19.102751 -0.98500001
-5.8990002 19.103001 -0.98474997
-5.8972502 19.102501 -0.98549998
-5.8947501 19.10375 -0.991
-5.8947501 19.1035 -0.98900002
-5.8922501 19.10375 -0.98949999
-5.8912501 19.102501 -0.99199998
-5.8937502 19.098499 -0.98750001
-5.9004998 19.093 -0.97925001
-5.9039998 19.095249 -0.97724998
-5.9029999 19.09675 -0.98224998
-5.9039998 19.098249 -0.9835
-5.9017501 19.099501 -0.98250002
-5.90275 19.097 -0.98075002
-5.9017501 19.097 -0.98175001
-5.8975 19.099501 -0.98025
-5.902 19.103001 -0.98400003
-5.9015002 19.102501 -0.98250002
-5.8990002 19.102751 -0.98325002
-5.8987498 19.10125 -0.98075002
-5.9032502 19.09675 -0.97899997
-5.9025002 19.097 -0.97750002
-5.90025 19.1005 -0.97974998
-5.9007502 19.10075 -0.9795
-5.9025002 19.10075 -0.97724998
-5.8982501 19.101 -0.97675002
-5.8982501 19.102751 -0.97799999
-5.8934999 19.102249 -0.98224998
-5.8947501 19.1035 -0.98049998
-5.8959999 19.101 -0.97925001
-5.8944998 19.10125 -0.97974998
-5.8947501 19.10125 -0.97899997
-5.8959999 19.1015 -0.97724998
-5.8959999 19.101 -0.97675002
-5.8905001 19.101749 -0.97825003
-5.9172502 19.078751 -0.97500002
-5.9194999 19.073 -0.97175002
-5.9190001 19.077749 -0.97000003
-5.9172502 19.07925 -0.96824998
-5.9180002 19.08075 -0.97474998
-5.9187498 19.081499 -0.97224998
-5.91675 19.080999 -0.97350001
-5.9159999 19.081249 -0.97275001
-5.9147501 19.08375 -0.97275001
-5.9184999 19.0805 -0.97074997
-5.915 19.082251 -0.96875
-5.9134998 19.0865 -0.972
-5.9120002 19.08725 -0.96724999
-5.9107499 19.0875 -0.96775001
-5.9124999 19.092501 -0.97549999
-5.9145002 19.089001 -0.96875
-5.90975 19.091749 -0.97600001
-5.908 19.09025 -0.97525001
-5.9117498 19.092501 -0.97600001
-5.9092498 19.092501 -0.97250003
-5.9072499 19.092751 -0.97399998
-5.90625 19.095501 -0.97324997
-5.9045 19.094 -0.97324997
-5.9082499 19.09075 -0.97025001
-5.9082499 19.091249 -0.96824998
-5.9072499 19.092751 -0.972
-5.9042501 19.09325 -0.97100002
-5.9064999 19.094 -0.97149998
-5.9060001 19.096001 -0.97049999
-5.9124999 19.088499 -0.96799999
-5.9099998 19.08975 -0.96499997
-5.9042501 19.0935 -0.96649998
-5.9077501 19.094999 -0.96625
-5.90625 19.091999 -0.96474999
-5.9045 19.09725 -0.9655
-5.9022498 19.09425 -0.97474998
-5.9037499 19.095751 -0.97399998
-5.9025002 19.094749 -0.97025001
-5.90275 19.095501 -0.97100002
-5.9029999 19.096251 -0.97600001
-5.9022498 19.09775 -0.97425002
-5.9029999 19.09725 -0.97224998
-5.9015002 19.09725 -0.97224998
-5.9022498 19.099251 -0.97224998
-5.8965001 19.099251 -0.9745
-5.9029999 19.10025 -0.97600001
-5.9012499 19.10125 -0.97600001
-5.901 19.1 -0.9745
-5.8985 19.10125 -0.97600001
-5.89925 19.101 -0.97474998
-5.8982501 19.103001 -0.97500002
-5.8977499 19.1005 -0.97324997
-5.8990002 19.102249 -0.97350001
-5.8965001 19.102751 -0.97350001
-5.8990002 19.101749 -0.97175002
-5.8985 19.10125 -0.97149998
-5.89675 19.102249 -0.972
-5.89675 19.101999 -0.97175002
-5.8979998 19.1015 -0.97000003
-5.89675 19.102501 -0.96850002
-5.8885002 19.102501 -0.97425002
-5.89575 19.102249 -0.97025001
-5.8934999 19.101999 -0.97074997
-5.8907499 19.103001 -0.97149998
-5.8915 19.103251 -0.97100002
-5.8895001 19.10375 -0.96899998
-5.9004998 19.092501 -0.96675003
-5.8979998 19.099001 -0.96675003
-5.89925 19.098 -0.96474999
-5.8982501 19.101 -0.96724999
-5.8997502 19.099501 -0.96149999
-5.8962498 19.098749 -0.96174997
-5.8965001 19.101999 -0.96275002
-5.895 19.103001 -0.96724999
-5.8937502 19.103001 -0.96574998
-5.8885002 19.102249 -0.96474999
-5.8927498 19.1015 -0.96399999
-5.8909998 19.102751 -0.96399999
-5.8899999 19.10125 -0.96174997
-5.8972502 19.105249 -0.99175
-5.8965001 19.10475 -0.98699999
-5.8955002 19.105499 -0.99024999
-5.8930001 19.105 -0.98900002
-5.8907499 19.105 -0.99199998
-5.8912501 19.10725 -0.99124998
-5.8899999 19.104 -0.99000001
-5.8909998 19.106001 -0.98949999
-5.8899999 19.10825 -0.98975003
-5.8942499 19.1045 -0.98774999
-5.8892498 19.108 -0.98500001
-5.89675 19.105249 -0.98075002
-5.8987498 19.105 -0.97799999
-5.8930001 19.105749 -0.98275
-5.8927498 19.10425 -0.98100001
-5.8912501 19.1045 -0.9835
-5.8892498 19.107 -0.98175001
-5.8947501 19.104 -0.9795
-5.8940001 19.10425 -0.97925001
-5.89575 19.10475 -0.97724998
-5.8909998 19.105749 -0.97825003
-5.8899999 19.10425 -0.97825003
-5.8905001 19.106501 -0.97974998
-5.8907499 19.10425 -0.97649997
-5.8889999 19.105249 -0.977
-5.8962498 19.10475 -0.97525001
-5.8947501 19.10425 -0.97375
-5.89325 19.105 -0.97275001
-5.8887501 19.106251 -0.97375
-5.8955002 19.104 -0.96875
-5.8907499 19.10425 -0.96824998
-5.8885002 19.106001 -0.96675003
-5.8889999 19.10425 -0.96025002
-5.8864999 19.10725 -0.99900001
-5.88375 19.10675 -0.99849999
-5.8829999 19.105499 -0.99650002
-5.8872499 19.10825 -0.99874997
-5.8857498 19.110001 -0.99900001
-5.8867502 19.108 -0.99624997
-5.8822498 19.109249 -1
-5.8825002 19.109501 -0.99975002
-5.8812499 19.10825 -0.99825001
-5.8835001 19.109501 -0.99624997
-5.8814998 19.108 -0.99774998
-5.88625 19.1075 -0.99225003
-5.8860002 19.106501 -0.99400002
-5.8835001 19.105249 -0.99449998
-5.8864999 19.109501 -0.99550003
-5.88625 19.108 -0.99425
-5.88625 19.11125 -0.99225003
-5.8775001 19.105249 -0.9975
-5.8787498 19.10775 -0.99650002
-5.8759999 19.10725 -0.99675
-5.8777499 19.109751 -0.99849999
-5.8785 19.110001 -0.99725002
-5.87675 19.11125 -0.9975
-5.8759999 19.108749 -0.99924999
-5.8740001 19.109751 -0.99949998
-5.8737502 19.1105 -0.99825001
-5.8755002 19.11175 -0.99650002
-5.8794999 19.110001 -0.99550003
-5.8769999 19.1105 -0.99599999
-5.8727498 19.1115 -0.99575001
-5.8730001 19.11075 -0.99325001
-5.8722501 19.112499 -0.99849999
-5.8715 19.11025 -0.99699998
-5.8692498 19.11075 -0.99774998
-5.8699999 19.11075 -0.99650002
-5.8655 19.1085 -0.99825001
-5.86725 19.111 -0.99624997
-5.8712502 19.108999 -0.99425
-5.8652501 19.1105 -0.995
-5.8645 19.1115 -0.99374998
-5.862 19.1075 -0.99675
-5.8627501 19.1085 -0.99900001
-5.8604999 19.109501 -0.99975002
-5.8614998 19.11025 -0.99874997
-5.8622499 19.11125 -0.99725002
-5.8572502 19.10825 -0.99900001
-5.8604999 19.11175 -0.99599999
-5.8592501 19.1115 -0.995
-5.8585 19.11075 -0.99349999
-5.868 19.112499 -0.99800003
-5.8655 19.112499 -0.99650002
-5.8639998 19.112249 -0.99575001
-5.8534999 19.10725 -0.99975002
-5.8559999 19.109751 -0.99849999
-5.8527498 19.109751 -1
-5.8537502 19.1105 -0.99924999
-5.8552499 19.109501 -0.99725002
-5.855 19.111 -0.99725002
-5.8522501 19.111 -0.99774998
-5.8495002 19.109501 -0.99900001
-5.8520002 19.10825 -0.99800003
-5.8495002 19.109249 -0.99650002
-5.8505001 19.1105 -0.99675
-5.8482499 19.1075 -0.99225003
-5.855 19.11175 -0.99374998
-5.8455 19.10725 -0.99975002
-5.8447499 19.106001 -0.99774998
-5.84375 19.107 -0.99975002
-5.8455 19.10725 -0.99299997
-5.8452501 19.108749 -0.99599999
-5.8477502 19.109249 -0.99400002
-5.85425 19.112 -0.99274999
-5.8872499 19.102501 -0.97224998
-5.88625 19.10375 -0.96850002
-5.8327498 19.102501 -0.98124999
-5.8814998 19.10775 -0.9885
-5.8817501 19.108 -0.98825002
-5.88625 19.10725 -0.98724997
-5.88275 19.105499 -0.98500001
-5.88625 19.108 -0.98425001
-5.8852501 19.11025 -0.98575002
-5.8814998 19.1085 -0.98675001
-5.8752499 19.106001 -0.99000001
-5.87675 19.1085 -0.99199998
-5.8787498 19.111 -0.99199998
-5.8740001 19.109249 -0.99049997
-5.8742499 19.11025 -0.9885
-5.8782501 19.10725 -0.98724997
-5.8777499 19.106501 -0.98750001
-5.8722501 19.107 -0.98675001
-5.875 19.11075 -0.98799998
-5.8744998 19.110001 -0.98675001
-5.8752499 19.109751 -0.98474997
-5.8734999 19.11125 -0.98500001
-5.8737502 19.112499 -0.98825002
-5.8877501 19.105749 -0.98175001
-5.8847499 19.105249 -0.98100001
-5.8832502 19.10775 -0.98124999
-5.8852501 19.109501 -0.98250002
-5.8872499 19.10475 -0.97750002
-5.8822498 19.105 -0.97799999
-5.88025 19.106501 -0.97724998
-5.8829999 19.10825 -0.97799999
-5.8800001 19.106001 -0.98199999
-5.8757501 19.10725 -0.98299998
-5.8730001 19.108 -0.98400003
-5.8787498 19.105249 -0.97974998
-5.8747501 19.1075 -0.97974998
-5.8755002 19.107 -0.97825003
-5.87925 19.1085 -0.97675002
-5.875 19.108999 -0.97675002
-5.8682499 19.10775 -0.99024999
-5.8660002 19.109751 -0.98874998
-5.8677502 19.11125 -0.98949999
-5.8705001 19.1085 -0.98724997
-5.8720002 19.109751 -0.98699999
-5.86975 19.111 -0.98774999
-5.86975 19.11025 -0.98699999
-5.8702502 19.108 -0.98474997
-5.8692498 19.1105 -0.98425001
-5.8612499 19.110001 -0.99199998
-5.8604999 19.108999 -0.98975003
-5.8639998 19.1105 -0.98925
-5.8575001 19.109501 -0.98949999
-5.8622499 19.1075 -0.98750001
-5.8622499 19.110001 -0.98750001
-5.8614998 19.11075 -0.98575002
-5.8572502 19.108749 -0.98724997
-5.85675 19.1115 -0.98675001
-5.8594999 19.109501 -0.98500001
-5.8685002 19.112249 -0.99075001
-5.8664999 19.113001 -0.99124998
-5.8657498 19.112249 -0.99000001
-5.86375 19.112749 -0.99175
-5.8627501 19.112 -0.99049997
-5.8582501 19.112 -0.98825002
-5.8607502 19.113501 -0.986
-5.8645 19.1075 -0.98199999
-5.8692498 19.109501 -0.98299998
-5.8702502 19.10825 -0.98049998
-5.8682499 19.108 -0.98075002
-5.8660002 19.109751 -0.98374999
-5.8649998 19.111 -0.9835
-5.8677502 19.1075 -0.97850001
-5.8647499 19.10825 -0.97974998
-5.8674998 19.110001 -0.97825003
-5.8660002 19.1115 -0.97850001
-5.8649998 19.10825 -0.97724998
-5.862 19.1075 -0.98299998
-5.8627501 19.109501 -0.98224998
-5.8607502 19.109501 -0.98299998
-5.8604999 19.11025 -0.98275
-5.8632498 19.109751 -0.98025
-5.8627501 19.11175 -0.98025
-5.86025 19.11175 -0.98100001
-5.8582501 19.11075 -0.98299998
-5.8579998 19.110001 -0.98224998
-5.8575001 19.11125 -0.98150003
-5.86375 19.109249 -0.97675002
-5.8604999 19.108749 -0.97775
-5.8565001 19.11075 -0.97850001
-5.8585 19.11175 -0.97624999
-5.8622499 19.112 -0.97750002
-5.8864999 19.10425 -0.97525001
-5.8870001 19.1045 -0.97549999
-5.8857498 19.105499 -0.9745
-5.8855 19.106501 -0.97575003
-5.8845 19.105 -0.97375
-5.8829999 19.106251 -0.97549999
-5.882 19.10475 -0.97350001
-5.8842502 19.108749 -0.97250003
-5.8847499 19.105249 -0.97149998
-5.8877501 19.106001 -0.97175002
-5.88625 19.10775 -0.972
-5.8860002 19.106001 -0.97074997
-5.8845 19.1075 -0.97074997
-5.8842502 19.10425 -0.96950001
-5.8845 19.10475 -0.96950001
-5.8874998 19.10725 -0.96850002
-5.8817501 19.104 -0.97125
-5.8814998 19.106501 -0.97175002
-5.8825002 19.1075 -0.96974999
-5.8835001 19.10675 -0.96824998
-5.8782501 19.105 -0.97224998
-5.8785 19.106501 -0.97224998
-5.8772502 19.106251 -0.97350001
-5.8769999 19.10775 -0.97250003
-5.875 19.106251 -0.97600001
-5.8755002 19.10725 -0.97375
-5.8722501 19.107 -0.97250003
-5.8775001 19.109501 -0.97600001
-5.8740001 19.109249 -0.9745
-5.8794999 19.105499 -0.97025001
-5.87675 19.105499 -0.96899998
-5.8752499 19.107 -0.96925002
-5.8722501 19.10725 -0.96824998
-5.8730001 19.1085 -0.97025001
-5.875 19.109501 -0.96950001
-5.8850002 19.106001 -0.96450001
-5.88025 19.10675 -0.96525002
-5.8847499 19.105249 -0.96200001
-5.8822498 19.1085 -0.96025002
-5.881 19.10825 -0.9605
-5.8782501 19.107 -0.96574998
-5.8755002 19.1075 -0.96649998
-5.875 19.106501 -0.96450001
-5.8765001 19.109501 -0.96749997
-5.8775001 19.110001 -0.96574998
-5.8737502 19.108999 -0.96799999
-5.8787498 19.1045 -0.96350002
-5.8800001 19.10675 -0.96224999
-5.8777499 19.1075 -0.96399999
-5.87675 19.105749 -0.96200001
-5.8752499 19.107 -0.96224999
-5.8737502 19.1045 -0.96025002
-5.8740001 19.10775 -0.96200001
-5.8775001 19.10825 -0.96399999
-5.8759999 19.1085 -0.963
-5.8720002 19.107 -0.97500002
-5.8687501 19.106001 -0.97600001
-5.8692498 19.1075 -0.97275001
-5.86625 19.105 -0.9745
-5.8709998 19.108749 -0.97525001
-5.8682499 19.108749 -0.97600001
-5.8692498 19.109751 -0.97575003
-5.8695002 19.1085 -0.97399998
-5.8670001 19.109249 -0.9745
-5.8649998 19.10825 -0.97500002
-5.86725 19.1085 -0.97299999
-5.8647499 19.10825 -0.97250003
-5.8717499 19.1075 -0.972
-5.869 19.106251 -0.97149998
-5.8687501 19.10775 -0.97074997
-5.8720002 19.109501 -0.97000003
-5.8717499 19.109501 -0.96850002
-5.8647499 19.108 -0.97025001
-5.8677502 19.11075 -0.97074997
-5.8647499 19.11025 -0.97149998
-5.8639998 19.10825 -0.97500002
-5.8625002 19.110001 -0.97549999
-5.8635001 19.110001 -0.97299999
-5.8617501 19.11075 -0.97049999
-5.8597498 19.11175 -0.97100002
-5.8565001 19.108 -0.96875
-5.8612499 19.112749 -0.97224998
-5.8720002 19.107 -0.96600002
-5.8642502 19.10775 -0.96574998
-5.8712502 19.10725 -0.96249998
-5.8682499 19.105499 -0.96025002
-5.8645 19.10775 -0.96350002
-5.8660002 19.1075 -0.96025002
-5.8647499 19.109501 -0.96399999
-5.8649998 19.108 -0.96200001
-5.8642502 19.108 -0.96100003
-5.862 19.109751 -0.96450001
-5.8562498 19.108 -0.96649998
-5.8597498 19.1085 -0.96450001
-5.8635001 19.109751 -0.96224999
-5.8612499 19.112 -0.96749997
-5.855 19.109501 -0.99024999
-5.8517499 19.1085 -0.9885
-5.8427501 19.10675 -0.99000001
-5.8449998 19.10825 -0.991
-5.8412499 19.10825 -0.99024999
-5.842 19.105749 -0.98699999
-5.8557501 19.113501 -0.99075001
-5.8547502 19.112249 -0.98724997
-5.8512502 19.10775 -0.98175001
-5.8552499 19.11025 -0.98299998
-5.8517499 19.11025 -0.98150003
-5.8505001 19.1075 -0.97825003
-5.8544998 19.11125 -0.97850001
-5.84725 19.106001 -0.98325002
-5.8467498 19.11025 -0.98199999
-5.8474998 19.1075 -0.97874999
-5.8460002 19.10825 -0.97750002
-5.84025 19.108 -0.97850001
-5.8555002 19.112249 -0.98199999
-5.8505001 19.10675 -0.97500002
-5.8495002 19.108 -0.97175002
-5.8455 19.110001 -0.97399998
-5.8417501 19.105749 -0.97025001
-5.8477502 19.110001 -0.972
-5.8559999 19.1105 -0.96675003
-5.8390002 19.10675 -0.97074997
-5.9239998 19.00275 -0.93099999
-5.914 18.991751 -0.95349997
-5.9045 18.978001 -0.949
-5.9067502 18.97925 -0.94700003
-5.9102502 18.97625 -0.93949997
-5.9107499 18.987249 -0.94150001
-5.9067502 18.984249 -0.94150001
-5.9047499 18.9795 -0.93000001
-5.9037499 18.981001 -0.92825001
-5.921 19.003 -0.92799997
-5.9082499 18.97875 -0.92374998
-5.9127498 18.9865 -0.92199999
-5.9177499 18.99725 -0.91825002
-5.9177499 18.99325 -0.91149998
-5.9159999 18.997499 -0.91100001
-5.8762498 18.960751 -0.90025002
-5.9217501 19.00625 -0.88200003
-5.9295001 19.028999 -0.95950001
-5.9285002 19.028999 -0.95550001
-5.9274998 19.025999 -0.95899999
-5.9277501 19.02725 -0.95875001
-5.9289999 19.035749 -0.95875001
-5.9295001 19.036249 -0.95975
-5.9289999 19.034 -0.95550001
-5.9292498 19.033251 -0.95125002
-5.9292498 19.033501 -0.94849998
-5.92975 19.035749 -0.94875002
-5.9305 19.0375 -0.95200002
-5.9295001 19.038 -0.95099998
-5.9305 19.044001 -0.95499998
-5.9305 19.050751 -0.95300001
-5.9302502 19.040751 -0.95200002
-5.9305 19.045 -0.95174998
-5.9305 19.04425 -0.949
-5.9292498 19.056 -0.95950001
-5.9285002 19.0425 -0.94099998
-5.928 19.053499 -0.90925002
-5.92625 19.050249 -0.90750003
-5.927 19.053749 -0.90425003
-5.9252501 19.0555 -0.90425003
-5.927 19.040001 -0.90100002
-5.9272499 19.04425 -0.90249997
-5.9272499 19.04525 -0.89625001
-5.9274998 19.0485 -0.90249997
-5.9264998 19.053249 -0.90175003
-5.9274998 19.04925 -0.89725
-5.9235001 19.0515 -0.89700001
-5.9264998 19.052999 -0.89749998
-5.9282498 19.059 -0.90525001
-5.9232502 19.064751 -0.90850002
-5.9267502 19.056 -0.90399998
-5.9252501 19.059 -0.903
-5.92625 19.0585 -0.90074998
-5.9235001 19.061251 -0.903
-5.9272499 19.05975 -0.89875001
-5.9254999 19.05925 -0.89824998
-5.9254999 19.063749 -0.89749998
-5.9237499 19.06175 -0.89824998
-5.9239998 19.066 -0.90350002
-5.9235001 19.06925 -0.89924997
-5.9229999 19.068001 -0.89749998
-5.9219999 19.071751 -0.89725
-5.9190001 19.0665 -0.90224999
-5.8905001 19.101999 -0.95975
-5.8889999 19.103001 -0.95999998
-5.8942499 19.102751 -0.95099998
-5.915 19.08275 -0.94400001
-5.9165001 19.08325 -0.935
-5.8907499 19.1045 -0.95850003
-5.9204998 19.07725 -0.89974999
-5.9177499 19.07575 -0.89674997
-5.9180002 19.0765 -0.89875001
-5.915 19.081751 -0.89625001
-5.9042501 19.087 -0.89850003
-5.9085002 19.089001 -0.90025002
-5.9050002 19.093 -0.90100002
-5.9045 19.09725 -0.89749998
-5.8905001 19.10375 -0.90149999
-5.8934999 19.10425 -0.90775001
-5.8902502 19.107 -0.90100002
-5.8887501 19.107 -0.90175003
-5.8922501 19.106251 -0.89950001
-5.8759999 19.1035 -0.95424998
-5.8252501 19.1015 -0.95324999
-5.8257499 19.099751 -0.95200002
-5.8249998 19.098499 -0.94499999
-5.8260002 19.1005 -0.9375
-5.8264999 19.102249 -0.93624997
-5.8832502 19.10675 -0.95924997
-5.8835001 19.1075 -0.95824999
-5.881 19.10825 -0.95875001
-5.8812499 19.108 -0.95550001
-5.8772502 19.106501 -0.95725
-5.8737502 19.107 -0.95875001
-5.8722501 19.1075 -0.95649999
-5.8794999 19.1085 -0.95749998
-5.8772502 19.10825 -0.958
-5.8762498 19.108749 -0.95625001
-5.8722501 19.108749 -0.95899999
-5.87675 19.105749 -0.95499998
-5.8790002 19.1075 -0.95099998
-5.87325 19.1045 -0.94849998
-5.8734999 19.1075 -0.94825
-5.87925 19.105749 -0.94499999
-5.8769999 19.108999 -0.94749999
-5.8720002 19.10725 -0.95899999
-5.8677502 19.1115 -0.95824999
-5.8645 19.108 -0.95649999
-5.87075 19.10725 -0.95574999
-5.8687501 19.106251 -0.95499998
-5.869 19.108749 -0.95599997
-5.86975 19.109249 -0.95275003
-5.8627501 19.109249 -0.95950001
-5.8607502 19.109751 -0.95950001
-5.8622499 19.110001 -0.95725
-5.8629999 19.11075 -0.95550001
-5.8709998 19.105749 -0.95200002
-5.86975 19.108 -0.95074999
-5.8687501 19.109249 -0.94774997
-5.87675 19.106251 -0.94325
-5.87675 19.10675 -0.94099998
-5.8742499 19.105749 -0.94375002
-5.8762498 19.106251 -0.93774998
-5.8734999 19.108999 -0.93674999
-5.849 19.105749 -0.94774997
-5.8284998 19.10425 -0.95775002
-5.888 19.1035 -0.90200001
-5.8872499 19.102501 -0.89999998
-5.8874998 19.102751 -0.89775002
-5.8860002 19.103251 -0.89725
-5.8790002 19.102249 -0.89749998
-5.8797498 19.103251 -0.89749998
-5.8267498 19.101749 -0.92425001
-5.8787498 19.105499 -0.92175001
-5.8769999 19.10775 -0.92124999
-5.8742499 19.108999 -0.91675001
-5.8872499 19.106251 -0.90850002
-5.8860002 19.10825 -0.90425003
-5.88375 19.109501 -0.90549999
-5.88275 19.11125 -0.90474999
-5.8762498 19.10725 -0.91125
-5.87925 19.10725 -0.90974998
-5.8727498 19.108999 -0.90824997
-5.8790002 19.10675 -0.90775001
-5.87325 19.105499 -0.90649998
-5.8757501 19.1075 -0.90425003
-5.8744998 19.1075 -0.90425003
-5.8845 19.10675 -0.90149999
-5.8850002 19.1075 -0.90100002
-5.882 19.10675 -0.90149999
-5.8855 19.1085 -0.90375
-5.8829999 19.1105 -0.903
-5.8807502 19.1085 -0.90175003
-5.8860002 19.10475 -0.89924997
-5.8852501 19.10425 -0.89875001
-5.8850002 19.104 -0.89649999
-5.88275 19.10425 -0.89999998
-5.8807502 19.1045 -0.89950001
-5.8829999 19.10475 -0.89775002
-5.88025 19.1045 -0.89700001
-5.8817501 19.109751 -0.89999998
-5.882 19.108749 -0.898
-5.87925 19.1105 -0.90224999
-5.8790002 19.11025 -0.9005
-5.8730001 19.109249 -0.90324998
-5.8769999 19.105249 -0.89924997
-5.8775001 19.1045 -0.89875001
-5.8769999 19.105 -0.89749998
-5.8777499 19.105249 -0.89674997
-5.87925 19.1075 -0.89700001
-5.8759999 19.106251 -0.89950001
-5.8747501 19.108 -0.89974999
-5.8734999 19.10825 -0.89974999
-5.8705001 19.109249 -0.91049999
-5.8715 19.108 -0.90549999
-5.87075 19.106501 -0.90350002
-5.8674998 19.106001 -0.90200001
-5.8699999 19.1085 -0.90375
-5.86975 19.11175 -0.90375
-5.869 19.108999 -0.90074998
-5.87075 19.107 -0.89875001
-5.86625 19.10775 -0.89749998
-5.8699999 19.109249 -0.89875001
-5.8720002 19.1085 -0.89700001
-5.8687501 19.108 -0.89700001
-5.8670001 19.109249 -0.89924997
-5.8649998 19.109751 -0.89999998
-5.8627501 19.108 -0.90175003
-5.8635001 19.1085 -0.89850003
-5.92625 19.021749 -0.88975
-5.9272499 19.023001 -0.88824999
-5.9239998 19.022751 -0.88975
-5.9254999 19.02075 -0.88499999
-5.9219999 19.023251 -0.88575
-5.9267502 19.018749 -0.88349998
-5.9242501 19.019501 -0.88375002
-5.9207501 19.019751 -0.88274997
-5.9239998 19.021 -0.88200003
-5.9229999 19.024 -0.89375001
-5.9247499 19.02775 -0.88975
-5.9250002 19.03175 -0.88975
-5.9254999 19.032249 -0.89300001
-5.92625 19.039499 -0.89200002
-5.9247499 19.035999 -0.88999999
-5.9219999 19.0245 -0.88424999
-5.9219999 19.024 -0.88349998
-5.9252501 19.032749 -0.88725001
-5.9250002 19.032249 -0.88524997
-5.9264998 19.039749 -0.88499999
-5.9257498 19.036249 -0.88125002
-5.921 19.009001 -0.87625003
-5.9229999 19.0215 -0.87849998
-5.9222498 19.023251 -0.87924999
-5.9225001 19.0215 -0.87725002
-5.9239998 19.02 -0.87699997
-5.9232502 19.01375 -0.86925
-5.9242501 19.02075 -0.87199998
-5.9239998 19.018 -0.86675
-5.9222498 19.021 -0.86675
-5.9225001 19.02125 -0.86425
-5.9229999 19.024 -0.87024999
-5.9237499 19.028749 -0.87024999
-5.9315 19.032249 -0.87050003
-5.92625 19.039749 -0.87099999
-5.9252501 19.033251 -0.86475003
-5.9254999 19.033501 -0.86425
-5.92625 19.039 -0.86449999
-5.9274998 19.0415 -0.89574999
-5.927 19.0425 -0.89275002
-5.9267502 19.04475 -0.89600003
-5.9257498 19.046749 -0.89525002
-5.9254999 19.047001 -0.89600003
-5.9267502 19.040501 -0.89099997
-5.9272499 19.041 -0.88924998
-5.92625 19.047501 -0.89050001
-5.9299998 19.048 -0.89375001
-5.9274998 19.053749 -0.8955
-5.9260001 19.053249 -0.89424998
-5.9277501 19.05525 -0.89249998
-5.9260001 19.04175 -0.88800001
-5.92625 19.043501 -0.88599998
-5.92275 19.043751 -0.88725001
-5.9254999 19.04475 -0.88450003
-5.9260001 19.04775 -0.88599998
-5.9252501 19.046 -0.88300002
-5.9239998 19.04525 -0.88225001
-5.927 19.04875 -0.88575
-5.92625 19.049999 -0.88424999
-5.9232502 19.054251 -0.88550001
-5.9252501 19.0495 -0.88300002
-5.9267502 19.054001 -0.88325
-5.927 19.057501 -0.89525002
-5.9260001 19.056749 -0.89499998
-5.9247499 19.057751 -0.89424998
-5.92625 19.05975 -0.89574999
-5.9260001 19.056999 -0.89399999
-5.9254999 19.056 -0.89275002
-5.9247499 19.063749 -0.89600003
-5.9247499 19.063749 -0.89424998
-5.9242501 19.06225 -0.89275002
-5.9232502 19.061001 -0.89399999
-5.9225001 19.063499 -0.89324999
-5.9264998 19.05625 -0.89074999
-5.9257498 19.060249 -0.889
-5.9225001 19.064251 -0.89450002
-5.9229999 19.064751 -0.89450002
-5.9225001 19.067499 -0.89300001
-5.9217501 19.067249 -0.89300001
-5.92275 19.070999 -0.89600003
-5.9222498 19.071251 -0.89450002
-5.921 19.070499 -0.89525002
-5.9207501 19.0695 -0.89324999
-5.9204998 19.06975 -0.89300001
-5.9219999 19.06675 -0.89099997
-5.9237499 19.0665 -0.88950002
-5.9204998 19.070499 -0.88824999
-5.9245 19.056 -0.88775003
-5.9242501 19.057249 -0.88599998
-5.9222498 19.05925 -0.88575
-5.9239998 19.05925 -0.88475001
-5.9250002 19.06225 -0.88575
-5.9229999 19.061251 -0.88700002
-5.9232502 19.061501 -0.88475001
-5.9239998 19.057501 -0.88249999
-5.9245 19.060749 -0.88274997
-5.92625 19.061251 -0.88050002
-5.9247499 19.063 -0.88075
-5.9229999 19.061001 -0.88225001
-5.9225001 19.064751 -0.88800001
-5.9219999 19.071751 -0.88775003
-5.9225001 19.064501 -0.88274997
-5.9239998 19.06675 -0.88024998
-5.9222498 19.0695 -0.88325
-5.9235001 19.06875 -0.88099998
-5.92275 19.0695 -0.88099998
-5.921 19.0695 -0.88150001
-5.927 19.042749 -0.87800002
-5.927 19.0425 -0.87449998
-5.9285002 19.0495 -0.87900001
-5.9292498 19.053249 -0.87349999
-5.9289999 19.054001 -0.87374997
-5.9267502 19.046 -0.86949998
-5.9252501 19.0455 -0.86425
-5.9282498 19.0485 -0.86874998
-5.9250002 19.0495 -0.86949998
-5.928 19.05125 -0.86900002
-5.9274998 19.0555 -0.87124997
-5.927 19.049749 -0.86699998
-5.9267502 19.05225 -0.86799997
-5.9282498 19.056749 -0.87800002
-5.9282498 19.056999 -0.87325001
-5.9295001 19.059 -0.87349999
-5.9252501 19.05625 -0.87875003
-5.9257498 19.057249 -0.87650001
-5.9237499 19.0585 -0.87975001
-5.9212499 19.06275 -0.87849998
-5.9237499 19.06225 -0.87774998
-5.9257498 19.057249 -0.87400001
-5.9237499 19.056499 -0.87599999
-5.9257498 19.061001 -0.87424999
-5.9222498 19.060249 -0.87349999
-5.9232502 19.063 -0.87325001
-5.9225001 19.067751 -0.87924999
-5.9215002 19.067751 -0.88
-5.9222498 19.066 -0.87650001
-5.9204998 19.067499 -0.87650001
-5.9225001 19.064501 -0.87599999
-5.9212499 19.066 -0.87475002
-5.9217501 19.064501 -0.87349999
-5.9212499 19.066 -0.8725
-5.9212499 19.0695 -0.87599999
-5.9207501 19.06975 -0.875
-5.9202499 19.070749 -0.87349999
-5.927 19.057249 -0.87175
-5.9247499 19.058001 -0.87124997
-5.9277501 19.056 -0.86900002
-5.92625 19.057501 -0.86900002
-5.9260001 19.058001 -0.86925
-5.9247499 19.059 -0.86925
-5.9237499 19.060499 -0.87150002
-5.9229999 19.060499 -0.86949998
-5.9239998 19.059999 -0.86825001
-5.9235001 19.062 -0.86825001
-5.928 19.056 -0.86524999
-5.9252501 19.05625 -0.86500001
-5.9274998 19.061001 -0.86750001
-5.9212499 19.063499 -0.86799997
-5.9215002 19.0625 -0.86650002
-5.9235001 19.06225 -0.866
-5.9237499 19.063749 -0.86449999
-5.9235001 19.064251 -0.87124997
-5.9219999 19.063999 -0.87124997
-5.9207501 19.0655 -0.87024999
-5.9219999 19.06625 -0.87150002
-5.9229999 19.064501 -0.86949998
-5.9212499 19.067499 -0.86849999
-5.9215002 19.070499 -0.86975002
-5.9217501 19.066999 -0.86774999
-5.9222498 19.064751 -0.86425
-5.921 19.063999 -0.86500001
-5.9215002 19.06675 -0.86524999
-5.921 19.07025 -0.86624998
-5.9219999 19.06875 -0.86475003
-5.9172502 19.06175 -0.89349997
-5.9200001 19.068251 -0.89424998
-5.9194999 19.0695 -0.89475
-5.91925 19.070499 -0.8955
-5.9194999 19.07025 -0.88975
-5.9200001 19.063499 -0.88099998
-5.9184999 19.071751 -0.86849999
-5.9182501 19.071251 -0.86624998
-5.93225 19.015249 -0.85825002
-5.9215002 19.01775 -0.86374998
-5.9260001 19.02125 -0.86274999
-5.92275 19.02125 -0.86224997
-5.9232502 19.01725 -0.85750002
-5.9252501 19.023251 -0.85949999
-5.9242501 19.021 -0.85699999
-5.921 19.0205 -0.85750002
-5.9237499 19.025 -0.86374998
-5.9245 19.030251 -0.86000001
-5.9222498 19.038 -0.86299998
-5.9272499 19.0425 -0.86299998
-5.92275 19.0445 -0.86374998
-5.9272499 19.046499 -0.85925001
-5.9245 19.049999 -0.86274999
-5.927 19.049749 -0.86025
-5.9264998 19.052 -0.86075002
-5.9242501 19.0485 -0.85974997
-5.927 19.051001 -0.85900003
-5.9245 19.050751 -0.85949999
-5.9260001 19.04825 -0.85799998
-5.9277501 19.05125 -0.85724998
-5.9264998 19.054501 -0.85799998
-5.9254999 19.0555 -0.85799998
-5.9247499 19.057249 -0.861
-5.9242501 19.06275 -0.86274999
-5.9222498 19.063749 -0.86224997
-5.9252501 19.056499 -0.85799998
-5.9245 19.0585 -0.85675001
-5.9239998 19.05875 -0.85949999
-5.9225001 19.060249 -0.85974997
-5.92275 19.063749 -0.85825002
-5.9217501 19.063749 -0.85974997
-5.9217501 19.067249 -0.86299998
-5.9239998 19.064501 -0.861
-5.9219999 19.064501 -0.86199999
-5.9207501 19.0655 -0.861
-5.9225001 19.063999 -0.85974997
-5.921 19.064751 -0.8585
-5.9222498 19.067751 -0.85974997
-5.9204998 19.069 -0.86000001
-5.9200001 19.05925 -0.861
-5.9194999 19.071751 -0.8635
-5.9165001 19.069 -0.86124998
-5.9212499 19.073999 -0.89324999
-5.9212499 19.0725 -0.89125001
-5.9204998 19.07375 -0.88999999
-5.9202499 19.07325 -0.88849998
-5.9212499 19.074751 -0.88475001
-5.9215002 19.072001 -0.88325
-5.9207501 19.07375 -0.87849998
-5.9142499 19.07925 -0.89574999
-5.9194999 19.0725 -0.8915
-5.9200001 19.07375 -0.889
-5.9172502 19.077749 -0.88924998
-5.9175 19.077 -0.88875002
-5.9159999 19.078751 -0.89074999
-5.9147501 19.080999 -0.89399999
-5.9145002 19.085751 -0.89375001
-5.9165001 19.08 -0.88950002
-5.91225 19.081751 -0.88875002
-5.91225 19.082001 -0.88950002
-5.9109998 19.0865 -0.89475
-5.9092498 19.085501 -0.89249998
-5.9105 19.0865 -0.8915
-5.9067502 19.087 -0.88849998
-5.9182501 19.074249 -0.8865
-5.9182501 19.07375 -0.88550001
-5.9175 19.078501 -0.88674998
-5.9172502 19.07675 -0.88550001
-5.91575 19.07975 -0.88725001
-5.9180002 19.073999 -0.88050002
-5.9177499 19.078501 -0.88225001
-5.9169998 19.07725 -0.88050002
-5.9159999 19.0795 -0.88249999
-5.9182501 19.08025 -0.88625002
-5.9162502 19.08025 -0.88725001
-5.9172502 19.080999 -0.88524997
-5.9162502 19.0805 -0.88499999
-5.9145002 19.081249 -0.88700002
-5.9142499 19.08 -0.88599998
-5.9137502 19.084749 -0.88749999
-5.9124999 19.08725 -0.88800001
-5.9147501 19.085251 -0.88575
-5.9137502 19.084749 -0.88450003
-5.9152498 19.0805 -0.88249999
-5.91325 19.081751 -0.88274997
-5.9142499 19.080999 -0.88125002
-5.9134998 19.084749 -0.88225001
-5.9124999 19.08725 -0.88325
-5.9120002 19.082001 -0.88700002
-5.9115 19.084249 -0.88625002
-5.9107499 19.087 -0.8865
-5.9120002 19.0875 -0.88274997
-5.90975 19.088751 -0.89499998
-5.9070001 19.091249 -0.89349997
-5.9064999 19.09075 -0.89225
-5.9060001 19.093 -0.89525002
-5.9054999 19.092501 -0.89300001
-5.9054999 19.094999 -0.89249998
-5.9085002 19.091749 -0.89025003
-5.9105 19.087999 -0.88999999
-5.9092498 19.089001 -0.88999999
-5.9092498 19.091 -0.88849998
-5.90625 19.096001 -0.89050001
-5.9137502 19.089001 -0.88550001
-5.9095001 19.089251 -0.88674998
-5.9105 19.087999 -0.88499999
-5.9095001 19.091249 -0.88599998
-5.9060001 19.092251 -0.88725001
-5.9047499 19.095249 -0.88575
-5.9107499 19.0895 -0.88300002
-5.9115 19.089251 -0.88050002
-5.908 19.092751 -0.88349998
-5.9057498 19.094749 -0.88375002
-5.9042501 19.095751 -0.88300002
-5.9067502 19.097 -0.88200003
-5.9050002 19.09775 -0.88099998
-5.908 19.098 -0.88024998
-5.901 19.098 -0.89574999
-5.9039998 19.098749 -0.89399999
-5.9037499 19.10025 -0.89249998
-5.901 19.10025 -0.89300001
-5.8965001 19.10025 -0.8955
-5.89675 19.101999 -0.89375001
-5.9032502 19.0965 -0.89099997
-5.9004998 19.099251 -0.89174998
-5.9007502 19.09775 -0.88924998
-5.902 19.0965 -0.889
-5.8997502 19.099751 -0.88975
-5.8962498 19.10075 -0.889
-5.8947501 19.1015 -0.89574999
-5.8887501 19.10125 -0.89249998
-5.8902502 19.10375 -0.89349997
-5.8955002 19.098749 -0.89125001
-5.89575 19.101749 -0.89050001
-5.8947501 19.102249 -0.88924998
-5.8885002 19.102501 -0.89200002
-5.8882499 19.10375 -0.89050001
-5.8915 19.102249 -0.88975
-5.8912501 19.102249 -0.88849998
-5.8899999 19.10375 -0.88875002
-5.9022498 19.092751 -0.88800001
-5.9012499 19.095249 -0.88450003
-5.89925 19.095751 -0.88475001
-5.9012499 19.095751 -0.88225001
-5.9032502 19.094749 -0.88075
-5.901 19.096251 -0.88800001
-5.9004998 19.09775 -0.88674998
-5.90275 19.09725 -0.88450003
-5.89925 19.098499 -0.88674998
-5.8987498 19.099751 -0.88499999
-5.8972502 19.098 -0.88550001
-5.8962498 19.1 -0.88550001
-5.9039998 19.097 -0.88249999
-5.9015002 19.099751 -0.88225001
-5.9022498 19.0975 -0.88150001
-5.8972502 19.098749 -0.88375002
-5.8977499 19.098499 -0.88300002
-5.8977499 19.099001 -0.88225001
-5.8997502 19.097 -0.88200003
-5.8997502 19.09775 -0.88200003
-5.8977499 19.09675 -0.88050002
-5.8979998 19.099251 -0.88075
-5.8972502 19.1005 -0.88024998
-5.8942499 19.099251 -0.88800001
-5.8934999 19.099251 -0.88700002
-5.8959999 19.1 -0.8865
-5.895 19.1015 -0.88575
-5.8940001 19.10025 -0.88424999
-5.89325 19.103001 -0.88599998
-5.8915 19.1015 -0.88749999
-5.8917499 19.101999 -0.88499999
-5.89575 19.099501 -0.884
-5.895 19.098499 -0.88300002
-5.8934999 19.099501 -0.88225001
-5.8947501 19.098 -0.88200003
-5.8927498 19.098249 -0.88024998
-5.8940001 19.1015 -0.88300002
-5.8922501 19.102751 -0.88300002
-5.8934999 19.102501 -0.88099998
-5.8912501 19.103001 -0.88150001
-5.8917499 19.101999 -0.88050002
-5.9190001 19.0725 -0.87774998
-5.9187498 19.0755 -0.87725002
-5.9197502 19.076 -0.87849998
-5.91575 19.077749 -0.87924999
-5.91925 19.07275 -0.87550002
-5.91925 19.073 -0.87374997
-5.9175 19.0735 -0.87300003
-5.9182501 19.077999 -0.87524998
-5.9159999 19.078751 -0.87550002
-5.9194999 19.08 -0.87849998
-5.9145002 19.081249 -0.87774998
-5.9142499 19.084 -0.87949997
-5.9127498 19.087749 -0.87849998
-5.9130001 19.084499 -0.87774998
-5.9124999 19.08725 -0.87774998
-5.9145002 19.081751 -0.87524998
-5.9137502 19.08275 -0.87599999
-5.9145002 19.083 -0.87274998
-5.914 19.085751 -0.87524998
-5.9137502 19.084999 -0.87449998
-5.9134998 19.084499 -0.87300003
-5.9124999 19.08725 -0.87325001
-5.9077501 19.087749 -0.87800002
-5.9190001 19.07225 -0.87050003
-5.9175 19.075251 -0.87199998
-5.9197502 19.07375 -0.86874998
-5.9190001 19.074499 -0.87
-5.91675 19.07725 -0.87075001
-5.9180002 19.078501 -0.86874998
-5.9187498 19.074249 -0.86675
-5.91925 19.073 -0.86500001
-5.9172502 19.07375 -0.86549997
-5.9180002 19.074249 -0.86575001
-5.9145002 19.0755 -0.86449999
-5.9169998 19.077749 -0.86549997
-5.914 19.080999 -0.86874998
-5.91225 19.0875 -0.86925
-5.9124999 19.084999 -0.86449999
-5.9127498 19.08725 -0.866
-5.9124999 19.087749 -0.86500001
-5.9120002 19.085751 -0.86975002
-5.9137502 19.09075 -0.87949997
-5.9130001 19.088499 -0.87274998
-5.9107499 19.09075 -0.87625003
-5.9099998 19.092251 -0.87875003
-5.9089999 19.09425 -0.87825
-5.9109998 19.09325 -0.87800002
-5.9085002 19.092751 -0.87774998
-5.9099998 19.092251 -0.87674999
-5.9109998 19.094749 -0.87625003
-5.9109998 19.091499 -0.87225002
-5.9082499 19.09725 -0.87825
-5.9082499 19.098499 -0.87674999
-5.9052501 19.098 -0.87774998
-5.908 19.099751 -0.87524998
-5.9045 19.098249 -0.87599999
-5.9130001 19.08975 -0.86425
-5.9117498 19.087999 -0.86799997
-5.9112501 19.091249 -0.86774999
-5.9092498 19.091499 -0.86725003
-5.9120002 19.087999 -0.86475003
-5.9089999 19.091 -0.86524999
-5.9045 19.091 -0.86575001
-5.9064999 19.094999 -0.86774999
-5.9067502 19.095501 -0.86500001
-5.908 19.098249 -0.86825001
-5.90625 19.099751 -0.86825001
-5.9070001 19.101999 -0.87050003
-5.9077501 19.096001 -0.86675
-5.9054999 19.096251 -0.86725003
-5.9042501 19.09675 -0.86650002
-5.9042501 19.101999 -0.86725003
-5.902 19.0965 -0.87949997
-5.90025 19.098249 -0.87825
-5.9017501 19.097 -0.87800002
-5.901 19.097 -0.87674999
-5.9000001 19.09675 -0.88
-5.9000001 19.09725 -0.88
-5.8987498 19.098749 -0.88
-5.8979998 19.099751 -0.87825
-5.9000001 19.09725 -0.87774998
-5.8985 19.09775 -0.87725002
-5.8972502 19.099251 -0.87725002
-5.89675 19.10075 -0.87875003
-5.9035001 19.098249 -0.87424999
-5.9007502 19.098499 -0.875
-5.9035001 19.099251 -0.87225002
-5.9007502 19.098499 -0.87274998
-5.9015002 19.099501 -0.87300003
-5.8972502 19.098499 -0.87599999
-5.902 19.1 -0.87449998
-5.8969998 19.10075 -0.87550002
-5.8972502 19.101749 -0.87349999
-5.8975 19.1 -0.87225002
-5.8952498 19.098749 -0.87975001
-5.895 19.102501 -0.87924999
-5.8922501 19.10375 -0.87825
-5.8937502 19.1 -0.8775
-5.8947501 19.10375 -0.87774998
-5.8902502 19.1035 -0.88
-5.8947501 19.098249 -0.87550002
-5.8934999 19.099751 -0.87524998
-5.8952498 19.099501 -0.8725
-5.8934999 19.103001 -0.87599999
-5.8922501 19.103251 -0.87575001
-5.8930001 19.103251 -0.87424999
-5.8895001 19.103251 -0.87424999
-5.9029999 19.10075 -0.86949998
-5.9025002 19.1015 -0.87
-5.9025002 19.101999 -0.86925
-5.8979998 19.1 -0.87124997
-5.8994999 19.10125 -0.86975002
-5.89925 19.101749 -0.86849999
-5.9000001 19.09725 -0.86650002
-5.8997502 19.09725 -0.866
-5.9012499 19.1 -0.86650002
-5.902 19.102751 -0.86774999
-5.9004998 19.102751 -0.86650002
-5.9004998 19.10075 -0.86449999
-5.89325 19.099501 -0.87099999
-5.8934999 19.099751 -0.86825001
-5.8912501 19.101749 -0.87150002
-5.8907499 19.101 -0.86900002
-5.8944998 19.098249 -0.86624998
-5.8920002 19.099751 -0.86624998
-5.8902502 19.1015 -0.86650002
-5.8889999 19.103251 -0.86675
-5.8905001 19.10075 -0.86449999
-5.8902502 19.103001 -0.86500001
-5.8927498 19.105249 -0.89600003
-5.8902502 19.10425 -0.89499998
-5.8902502 19.104 -0.88524997
-5.8899999 19.105 -0.88150001
-5.8934999 19.104 -0.87949997
-5.8882499 19.105749 -0.87900001
-5.8895001 19.106001 -0.88
-5.8909998 19.104 -0.87475002
-5.8899999 19.1045 -0.87349999
-5.8915 19.105499 -0.87124997
-5.8885002 19.1045 -0.87175
-5.8907499 19.10425 -0.86825001
-5.8882499 19.1045 -0.86975002
-5.8889999 19.105249 -0.86849999
-5.9202499 19.074751 -0.86150002
-5.9194999 19.07575 -0.8635
-5.9169998 19.0755 -0.86400002
-5.9165001 19.078751 -0.86400002
-5.9187498 19.0765 -0.86175001
-5.9190001 19.076 -0.861
-5.9169998 19.077999 -0.86199999
-5.9130001 19.07975 -0.86400002
-5.9155002 19.0795 -0.86175001
-5.91575 19.077999 -0.86049998
-5.9177499 19.074499 -0.85900003
-5.9184999 19.077 -0.85874999
-5.915 19.07925 -0.85949999
-5.9180002 19.081249 -0.86374998
-5.9162502 19.0805 -0.86224997
-5.9147501 19.08 -0.86075002
-5.914 19.0835 -0.86075002
-5.914 19.085501 -0.86374998
-5.9130001 19.087749 -0.86274999
-5.914 19.080999 -0.85949999
-5.9145002 19.083 -0.85949999
-5.91225 19.083 -0.85949999
-5.9127498 19.084 -0.85974997
-5.9124999 19.087749 -0.85974997
-5.91225 19.084 -0.85775
-5.9112501 19.0805 -0.86374998
-5.9072499 19.085501 -0.86224997
-5.9109998 19.0875 -0.85874999
-5.9130001 19.088499 -0.86224997
-5.91325 19.09025 -0.86224997
-5.91225 19.091 -0.86274999
-5.91225 19.091499 -0.86150002
-5.9130001 19.088751 -0.85974997
-5.9112501 19.08975 -0.86374998
-5.9082499 19.09025 -0.86325002
-5.9099998 19.089001 -0.86150002
-5.9070001 19.08975 -0.86250001
-5.9089999 19.0945 -0.86025
-5.9070001 19.091999 -0.86175001
-5.9050002 19.093 -0.86075002
-5.9052501 19.0895 -0.86000001
-5.908 19.09375 -0.8585
-5.9045 19.092251 -0.85874999
-5.9074998 19.096001 -0.86025
-5.9045 19.09725 -0.85974997
-5.9057498 19.098 -0.85874999
-5.9035001 19.095249 -0.86250001
-5.9039998 19.0905 -0.85925001
-5.9015002 19.0965 -0.8635
-5.901 19.099751 -0.86299998
-5.8962498 19.09725 -0.86274999
-5.902 19.10025 -0.86124998
-5.8979998 19.10125 -0.86224997
-5.89925 19.10025 -0.86175001
-5.8965001 19.1 -0.86049998
-5.8997502 19.09775 -0.85900003
-5.8990002 19.099251 -0.86000001
-5.8997502 19.098749 -0.8585
-5.8977499 19.099751 -0.85974997
-5.9022498 19.1 -0.85949999
-5.8977499 19.1 -0.85874999
-5.8940001 19.09725 -0.86400002
-5.8955002 19.099251 -0.86400002
-5.8930001 19.099251 -0.86374998
-5.895 19.099001 -0.861
-5.8944998 19.101999 -0.86400002
-5.89575 19.101999 -0.86250001
-5.8947501 19.10125 -0.86075002
-5.89325 19.103001 -0.861
-5.8899999 19.102249 -0.8635
-5.8889999 19.102501 -0.86250001
-5.88975 19.1 -0.86025
-5.8882499 19.101749 -0.86025
-5.8952498 19.099501 -0.85874999
-5.8934999 19.10075 -0.85925001
-5.8934999 19.10125 -0.85949999
-5.8907499 19.1015 -0.86000001
-5.8892498 19.10475 -0.86175001
-5.8892498 19.106001 -0.85874999
-5.8885002 19.10825 -0.85900003
-5.8874998 19.10375 -0.8955
-5.8867502 19.099501 -0.88975
-5.8822498 19.10375 -0.89074999
-5.881 19.103251 -0.88424999
-5.888 19.10375 -0.884
-5.8817501 19.103251 -0.87800002
-5.8870001 19.102751 -0.87225002
-5.8874998 19.10375 -0.86475003
-5.8829999 19.1035 -0.86575001
-5.8860002 19.105749 -0.89424998
-5.8857498 19.105 -0.89399999
-5.8857498 19.106251 -0.89249998
-5.8807502 19.105 -0.89475
-5.8814998 19.10675 -0.89525002
-5.8812499 19.105499 -0.89249998
-5.8874998 19.1045 -0.889
-5.8812499 19.105499 -0.89025003
-5.8804998 19.106001 -0.89025003
-5.8779998 19.105249 -0.89424998
-5.8785 19.106251 -0.89574999
-5.87675 19.1075 -0.89600003
-5.8794999 19.108999 -0.89349997
-5.8740001 19.108749 -0.89450002
-5.8747501 19.108 -0.89300001
-5.8730001 19.109249 -0.89324999
-5.8787498 19.10725 -0.89074999
-5.8762498 19.10725 -0.88999999
-5.8744998 19.10775 -0.89050001
-5.8727498 19.10475 -0.88924998
-5.8757501 19.108749 -0.88924998
-5.8727498 19.108999 -0.88849998
-5.8855 19.105 -0.88475001
-5.8860002 19.105 -0.88450003
-5.8864999 19.106251 -0.88575
-5.8845 19.107 -0.88475001
-5.88275 19.10475 -0.88625002
-5.8825002 19.1075 -0.88499999
-5.8852501 19.10825 -0.88599998
-5.8812499 19.109249 -0.88524997
-5.8857498 19.10425 -0.88099998
-5.8835001 19.105749 -0.88375002
-5.8822498 19.105 -0.88325
-5.8814998 19.106501 -0.88300002
-5.8817501 19.106251 -0.88174999
-5.8782501 19.106001 -0.88499999
-5.8740001 19.10725 -0.88550001
-5.8779998 19.109249 -0.88749999
-5.8734999 19.110001 -0.8865
-5.8747501 19.109751 -0.88450003
-5.8779998 19.105749 -0.88249999
-5.8785 19.10725 -0.88075
-5.8757501 19.106501 -0.88099998
-5.8782501 19.108999 -0.88225001
-5.8775001 19.109751 -0.88075
-5.8742499 19.109249 -0.88150001
-5.8685002 19.10775 -0.89475
-5.8660002 19.10725 -0.89300001
-5.8674998 19.109501 -0.89424998
-5.8645 19.110001 -0.89324999
-5.8652501 19.111 -0.89300001
-5.86975 19.105749 -0.89174998
-5.8709998 19.10775 -0.89200002
