//X	Y	Z	Deviation[]	Amplitude[dB]	Reflectance[dB]
-5.901999950	19.096500397	-0.888999999	1.0000000000	25.7800006866	-6.0000000000
-5.903999805	19.097999573	-0.889249980	2.0000000000	25.8899993896	-5.8899998665
-5.896749973	19.099000931	-0.890500009	3.0000000000	26.9899997711	-4.7899999619
-5.896249771	19.096500397	-0.889999986	4.0000000000	26.7600002289	-5.0199999809
-5.899750233	19.099750519	-0.889750004	3.0000000000	26.6700000763	-5.1100001335
-5.898499966	19.100250244	-0.892000020	1.0000000000	26.2199993134	-5.5599999428
-5.898250103	19.100500107	-0.888499975	4.0000000000	27.0100002289	-4.7699999809
-5.896249771	19.100749969	-0.888999999	3.0000000000	27.3799991608	-4.4000000954
-5.895249844	19.097249985	-0.893750012	2.0000000000	17.0200004578	-6.4099998474
-5.894750118	19.097749710	-0.893499970	5.0000000000	27.0300006866	-4.7500000000
-5.895500183	19.096000671	-0.892250001	2.0000000000	21.4099998474	-6.0799999237
-5.894750118	19.101499557	-0.895749986	3.0000000000	26.8099994659	-4.9699997902
-5.895249844	19.103250504	-0.894249976	5.0000000000	26.4200000763	-5.3600001335
-5.893249989	19.102249146	-0.896000028	5.0000000000	21.1200008392	-6.3699998856
-5.892499924	19.103250504	-0.894749999	2.0000000000	26.9099998474	-4.8699998856
-5.894000053	19.100000381	-0.893750012	3.0000000000	26.7099990845	-5.0700001717
-5.894249916	19.102249146	-0.892750025	2.0000000000	26.3600006104	-5.4200000763
-5.888999939	19.101249695	-0.894999981	1.0000000000	26.7000007629	-5.0799999237
-5.888750076	19.101249695	-0.892499983	6.0000000000	27.0599994659	-4.7199997902
-5.891749859	19.102249146	-0.893249989	1.0000000000	26.8799991608	-4.9000000954
-5.890250206	19.103750229	-0.893499970	0.0000000000	27.3799991608	-4.4000000954
-5.895500183	19.098749161	-0.891250014	4.0000000000	26.8799991608	-4.9000000954
-5.894999981	19.097999573	-0.889249980	2.0000000000	26.7000007629	-5.0799999237
-5.893000126	19.099750519	-0.888249993	1.0000000000	17.1000003815	-6.3299999237
-5.895750046	19.101749420	-0.890500009	6.0000000000	27.0400009155	-4.7399997711
-5.894000053	19.100000381	-0.891499996	1.0000000000	26.6200008392	-5.1599998474
-5.892749786	19.103500366	-0.891749978	1.0000000000	27.0100002289	-4.7699999809
-5.894000053	19.102500916	-0.890999973	3.0000000000	26.7000007629	-5.0799999237
-5.894499779	19.100999832	-0.888999999	2.0000000000	26.2299995422	-5.5500001907
-5.894750118	19.102249146	-0.889249980	2.0000000000	26.9899997711	-4.7899999619
-5.888750076	19.101499557	-0.890500009	2.0000000000	27.2999992371	-4.4800000191
-5.891749859	19.103250504	-0.891250014	3.0000000000	27.0200004578	-4.7600002289
-5.888500214	19.102500916	-0.892000020	1.0000000000	27.4500007629	-4.3299999237
-5.889249802	19.102249146	-0.890250027	5.0000000000	27.3600006104	-4.4200000763
-5.888249874	19.103750229	-0.890500009	2.0000000000	27.1599998474	-4.6199998856
-5.891250134	19.100999832	-0.889999986	3.0000000000	27.2600002289	-4.5199999809
-5.891499996	19.102249146	-0.889750004	5.0000000000	26.8700008392	-4.9099998474
-5.891250134	19.102249146	-0.888499975	3.0000000000	26.8700008392	-4.9099998474
-5.889999866	19.103750229	-0.888750017	4.0000000000	27.2399997711	-4.5399999619
-5.901500225	19.091499329	-0.885999978	3.0000000000	26.7500000000	-5.0300002098
-5.902249813	19.092750549	-0.888000011	2.0000000000	26.6100006104	-5.1700000763
-5.901500225	19.094249725	-0.886500001	2.0000000000	25.9899997711	-5.7899999619
-5.901000023	19.094999313	-0.886749983	1.0000000000	26.1000003815	-5.6799998283
-5.903500080	19.094499588	-0.884500027	3.0000000000	25.5499992371	-6.2300000191
-5.901249886	19.095249176	-0.884500027	2.0000000000	26.1299991608	-5.6500000954
-5.899250031	19.095750809	-0.884750009	4.0000000000	26.2199993134	-5.5599999428
-5.901249886	19.095750809	-0.882250011	3.0000000000	26.4500007629	-5.3299999237
-5.903250217	19.094749451	-0.880750000	4.0000000000	26.3299999237	-5.4499998093
-5.893000126	19.095249176	-0.886500001	1.0000000000	21.9799995422	-5.5100002289
-5.901000023	19.096250534	-0.888000011	2.0000000000	26.5799999237	-5.1999998093
-5.900750160	19.097499847	-0.886749983	1.0000000000	26.2800006866	-5.5000000000
-5.900499821	19.097749710	-0.886749983	1.0000000000	25.8700008392	-5.9099998474
-5.900249958	19.099000931	-0.888000011	4.0000000000	26.5699996948	-5.2100000381
-5.902750015	19.097249985	-0.884500027	5.0000000000	25.8600006104	-5.9200000763
-5.900499821	19.097999573	-0.884750009	2.0000000000	26.1399993896	-5.6399998665
-5.896500111	19.097000122	-0.887750030	2.0000000000	26.9500007629	-4.8299999237
-5.899250031	19.098499298	-0.886749983	2.0000000000	26.3899993896	-5.3899998665
-5.896749973	19.098249435	-0.887250006	4.0000000000	26.7399997711	-5.0399999619
-5.898749828	19.099750519	-0.884999990	4.0000000000	26.5900001526	-5.1900000572
-5.897250175	19.097999573	-0.885500014	2.0000000000	26.6499996185	-5.1300001144
-5.896249771	19.100000381	-0.885500014	4.0000000000	26.9599990845	-4.8200001717
-5.903999805	19.097000122	-0.882499993	3.0000000000	25.8899993896	-5.8899998665
-5.901249886	19.096750259	-0.883000016	5.0000000000	26.0100002289	-5.7699999809
-5.901500225	19.099750519	-0.882250011	1.0000000000	17.5000000000	-5.9299998283
-5.902249813	19.097499847	-0.881500006	3.0000000000	26.5200004578	-5.2600002289
-5.899499893	19.097999573	-0.883499980	5.0000000000	26.5000000000	-5.2800002098
-5.897250175	19.098749161	-0.883750021	5.0000000000	26.6599998474	-5.1199998856
-5.897749901	19.098499298	-0.883000016	2.0000000000	26.8099994659	-4.9699997902
-5.897749901	19.099000931	-0.882250011	4.0000000000	26.6100006104	-5.1700000763
-5.899750233	19.097000122	-0.882000029	4.0000000000	26.6000003815	-5.1799998283
-5.899750233	19.097749710	-0.882000029	2.0000000000	26.3099994659	-5.4699997902
-5.897749901	19.096750259	-0.880500019	2.0000000000	22.2299995422	-5.2600002289
-5.897999763	19.099250793	-0.880750000	4.0000000000	27.0799999237	-4.6999998093
-5.897250175	19.100500107	-0.880249977	3.0000000000	27.0599994659	-4.7199997902
-5.894249916	19.099250793	-0.888000011	5.0000000000	27.0699996948	-4.7100000381
-5.893499851	19.099250793	-0.887000024	4.0000000000	26.3199996948	-5.4600000381
-5.895999908	19.100000381	-0.886500001	1.0000000000	26.7500000000	-5.0300002098
-5.893750191	19.102750778	-0.887750030	3.0000000000	26.7600002289	-5.0199999809
-5.894999981	19.101499557	-0.885749996	5.0000000000	26.5400009155	-5.2399997711
-5.894000053	19.100250244	-0.884249985	2.0000000000	26.1499996185	-5.6300001144
-5.895249844	19.103500366	-0.884249985	0.0000000000	26.2299995422	-5.5500001907
-5.893249989	19.103000641	-0.885999978	0.0000000000	25.8999996185	-5.8800001144
-5.891499996	19.101499557	-0.887499988	1.0000000000	26.9400005341	-4.8400001526
-5.890749931	19.103500366	-0.886749983	2.0000000000	26.6299991608	-5.1500000954
-5.889249802	19.101999283	-0.888000011	2.0000000000	27.3099994659	-4.4699997902
-5.891749859	19.101999283	-0.884999990	2.0000000000	26.5400009155	-5.2399997711
-5.892000198	19.102500916	-0.884750009	2.0000000000	26.0300006866	-5.7500000000
-5.889500141	19.102500916	-0.885749996	2.0000000000	26.9500007629	-4.8299999237
-5.895750046	19.099500656	-0.884000003	3.0000000000	26.9599990845	-4.8200001717
-5.894999981	19.098499298	-0.883000016	2.0000000000	27.4599990845	-4.3200001717
-5.893499851	19.099500656	-0.882250011	6.0000000000	26.1599998474	-5.6199998856
-5.894750118	19.097999573	-0.882000029	4.0000000000	26.8099994659	-4.9699997902
-5.892749786	19.098249435	-0.880249977	3.0000000000	25.9200000763	-5.8600001335
-5.895750046	19.100250244	-0.884000003	5.0000000000	27.3899993896	-4.3899998665
-5.894000053	19.101499557	-0.883000016	2.0000000000	26.9400005341	-4.8400001526
-5.892250061	19.102750778	-0.883249998	1.0000000000	25.9500007629	-5.8299999237
-5.892250061	19.102750778	-0.883000016	1.0000000000	25.6000003815	-6.1799998283
-5.895249844	19.100999832	-0.880750000	2.0000000000	27.0300006866	-4.7500000000
-5.893499851	19.102500916	-0.880999982	1.0000000000	26.0400009155	-5.7399997711
-5.891250134	19.101249695	-0.883000016	1.0000000000	20.7900009155	-6.6999998093
-5.891250134	19.103000641	-0.881500006	2.0000000000	25.6499996185	-6.1300001144
-5.891749859	19.101999283	-0.880500019	2.0000000000	24.9699993134	-6.8099999428
-5.889750004	19.103250504	-0.880500019	3.0000000000	24.9300003052	-6.8499999046
-5.919750214	19.073499680	-0.879750013	1.0000000000	24.7999992371	-6.9800000191
-5.918000221	19.074249268	-0.879750013	1.0000000000	24.6800003052	-7.0999999046
-5.919000149	19.072500229	-0.877749979	2.0000000000	24.5599994659	-7.2199997902
-5.918499947	19.072999954	-0.876749992	2.0000000000	24.8700008392	-6.9099998474
-5.918749809	19.075500488	-0.877250016	3.0000000000	24.5400009155	-7.2399997711
-5.914750099	19.073999405	-0.876999974	2.0000000000	21.7000007629	-5.7899999619
-5.919750214	19.076000214	-0.878499985	1.0000000000	24.8500003815	-6.9299998283
-5.917749882	19.078750610	-0.879750013	4.0000000000	24.4200000763	-7.3600001335
-5.918250084	19.076499939	-0.876999974	1.0000000000	24.6399993896	-7.1399998665
-5.917749882	19.078500748	-0.877250016	4.0000000000	24.4300003052	-7.3499999046
-5.917250156	19.078250885	-0.876999974	2.0000000000	24.4300003052	-7.3499999046
-5.915750027	19.077749252	-0.879249990	4.0000000000	24.7099990845	-7.0700001717
-5.915750027	19.079250336	-0.878250003	2.0000000000	24.7700004578	-7.0100002289
-5.914750099	19.079000473	-0.877499998	4.0000000000	24.8299999237	-6.9499998093
-5.919250011	19.072750092	-0.875500023	1.0000000000	24.3500003815	-7.4299998283
-5.917749882	19.073749542	-0.875000000	1.0000000000	24.6599998474	-7.1199998856
-5.918499947	19.074249268	-0.875500023	2.0000000000	24.7700004578	-7.0100002289
-5.919250011	19.072999954	-0.873749971	1.0000000000	24.4699993134	-7.3099999428
-5.919250011	19.072250366	-0.872749984	3.0000000000	24.6599998474	-7.1199998856
-5.917500019	19.073499680	-0.873000026	2.0000000000	24.9699993134	-6.8099999428
-5.918250084	19.077999115	-0.875249982	0.0000000000	24.5300006866	-7.2500000000
-5.917500019	19.078500748	-0.875249982	3.0000000000	24.4099998474	-7.3699998856
-5.919000149	19.076499939	-0.873749971	2.0000000000	24.4200000763	-7.3600001335
-5.916500092	19.076499939	-0.873250008	2.0000000000	24.4400005341	-7.3400001526
-5.918250084	19.079000473	-0.874000013	2.0000000000	24.7299995422	-7.0500001907
-5.916999817	19.079250336	-0.872250021	3.0000000000	24.8600006104	-6.9200000763
-5.915999889	19.078750610	-0.875500023	3.0000000000	24.4799995422	-7.3000001907
-5.914249897	19.079500198	-0.875000000	2.0000000000	18.2600002289	-5.1799998283
-5.914500237	19.076499939	-0.872749984	0.0000000000	18.3400001526	-5.0999999046
-5.919499874	19.079999924	-0.878499985	2.0000000000	24.6499996185	-7.1300001144
-5.914750099	19.080749512	-0.879499972	2.0000000000	25.0200004578	-6.7600002289
-5.914500237	19.081249237	-0.877749979	2.0000000000	24.8700008392	-6.9099998474
-5.914999962	19.083250046	-0.877499998	0.0000000000	24.9500007629	-6.8299999237
-5.914249897	19.083999634	-0.879499972	0.0000000000	24.8799991608	-6.9000000954
-5.913249969	19.086500168	-0.879499972	1.0000000000	25.0000000000	-6.7800002098
-5.912749767	19.087749481	-0.878499985	4.0000000000	24.8500003815	-6.9299998283
-5.913000107	19.084499359	-0.877749979	1.0000000000	25.0000000000	-6.7800002098
-5.913750172	19.084999084	-0.877499998	2.0000000000	24.6100006104	-7.1700000763
-5.912250042	19.084499359	-0.876250029	3.0000000000	24.9500007629	-6.8299999237
-5.912499905	19.087249756	-0.877749979	1.0000000000	25.0799999237	-6.6999998093
-5.916749954	19.081249237	-0.875500023	3.0000000000	24.5400009155	-7.2399997711
-5.916250229	19.080249786	-0.874000013	2.0000000000	24.3500003815	-7.4299998283
-5.916250229	19.080249786	-0.873499990	3.0000000000	24.6399993896	-7.1399998665
-5.914999962	19.080999374	-0.875750005	2.0000000000	24.5699996948	-7.2100000381
-5.914500237	19.081750870	-0.875249982	5.0000000000	25.4500007629	-6.3299999237
-5.914000034	19.081750870	-0.874750018	1.0000000000	24.5400009155	-7.2399997711
-5.913499832	19.082000732	-0.875999987	1.0000000000	21.5000000000	-5.9899997711
-5.913750172	19.082750320	-0.875999987	3.0000000000	24.8600006104	-6.9200000763
-5.915999889	19.080999374	-0.872250021	1.0000000000	24.6000003815	-7.1799998283
-5.914000034	19.080999374	-0.873250008	5.0000000000	25.4099998474	-6.3699998856
-5.914500237	19.083000183	-0.872749984	4.0000000000	24.9500007629	-6.8299999237
-5.914000034	19.085750580	-0.875249982	1.0000000000	24.8600006104	-6.9200000763
-5.913750172	19.084999084	-0.874499977	1.0000000000	25.0000000000	-6.7800002098
-5.912749767	19.087499619	-0.874750018	1.0000000000	25.1399993896	-6.6399998665
-5.913499832	19.084499359	-0.873000026	1.0000000000	25.1700000763	-6.6100001335
-5.914249897	19.086500168	-0.872500002	1.0000000000	25.5900001526	-6.1900000572
-5.912499905	19.087249756	-0.873250008	0.0000000000	18.4599990845	-4.9800000191
-5.912000179	19.084249496	-0.879750013	0.0000000000	13.8100004196	-6.9000000954
-5.907750130	19.087749481	-0.878000021	0.0000000000	18.2099990845	-5.2300000191
-5.919000149	19.073499680	-0.871999979	1.0000000000	24.6399993896	-7.1399998665
-5.919000149	19.072250366	-0.870500028	1.0000000000	24.4400005341	-7.3400001526
-5.917500019	19.075250626	-0.871999979	2.0000000000	24.8299999237	-6.9499998093
-5.918000221	19.074249268	-0.870500028	2.0000000000	24.5599994659	-7.2199997902
-5.919750214	19.073749542	-0.868749976	1.0000000000	24.5400009155	-7.2399997711
-5.919000149	19.074499130	-0.870000005	1.0000000000	24.7500000000	-7.0300002098
-5.918499947	19.075750351	-0.868749976	1.0000000000	24.5400009155	-7.2399997711
-5.914999962	19.073999405	-0.870750010	1.0000000000	21.5200004578	-5.9699997902
-5.917250156	19.076000214	-0.870500028	3.0000000000	24.8500003815	-6.9299998283
-5.916749954	19.077249527	-0.870750010	0.0000000000	24.6399993896	-7.1399998665
-5.916250229	19.078500748	-0.870500028	3.0000000000	24.9200000763	-6.8600001335
-5.918000221	19.078500748	-0.868749976	2.0000000000	24.6900005341	-7.0900001526
-5.917500019	19.078250885	-0.868250012	1.0000000000	25.0000000000	-6.7800002098
-5.915500164	19.079000473	-0.870999992	2.0000000000	24.6599998474	-7.1199998856
-5.915249825	19.079000473	-0.868749976	3.0000000000	25.3899993896	-6.3899998665
-5.918250084	19.075000763	-0.867999971	1.0000000000	24.5400009155	-7.2399997711
-5.918749809	19.074249268	-0.866750002	2.0000000000	24.4699993134	-7.3099999428
-5.919250011	19.072999954	-0.865000010	2.0000000000	24.3899993896	-7.3899998665
-5.917250156	19.073749542	-0.865499973	3.0000000000	24.5699996948	-7.2100000381
-5.918000221	19.074249268	-0.865750015	2.0000000000	24.3500003815	-7.4299998283
-5.912499905	19.072999954	-0.864250004	2.0000000000	22.1100006104	-5.3800001144
-5.914500237	19.075500488	-0.864499986	4.0000000000	16.3600006104	-7.3800001144
-5.918000221	19.077499390	-0.866750002	1.0000000000	24.3199996948	-7.4600000381
-5.916749954	19.077249527	-0.866249979	3.0000000000	25.1200008392	-6.6599998474
-5.916749954	19.079500198	-0.866999984	2.0000000000	25.1299991608	-6.6500000954
-5.916999817	19.077749252	-0.865499973	4.0000000000	24.8600006104	-6.9200000763
-5.914249897	19.077749252	-0.866999984	4.0000000000	25.4899997711	-6.2899999619
-5.915750027	19.079250336	-0.865750015	2.0000000000	24.9799995422	-6.8000001907
-5.915249825	19.079250336	-0.864250004	3.0000000000	25.4300003052	-6.3499999046
-5.916749954	19.080999374	-0.869000018	2.0000000000	25.0400009155	-6.7399997711
-5.915500164	19.080999374	-0.870750010	1.0000000000	24.8299999237	-6.9499998093
-5.914999962	19.082250595	-0.870750010	4.0000000000	25.2299995422	-6.5500001907
-5.912499905	19.083250046	-0.870750010	2.0000000000	25.0200004578	-6.7600002289
-5.914249897	19.081499100	-0.869499981	3.0000000000	25.2500000000	-6.5300002098
-5.914000034	19.080999374	-0.868749976	3.0000000000	25.3500003815	-6.4299998283
-5.912250042	19.082250595	-0.870000005	2.0000000000	25.3500003815	-6.4299998283
-5.912250042	19.087249756	-0.871749997	1.0000000000	25.1499996185	-6.6300001144
-5.913249969	19.086000443	-0.870999992	1.0000000000	25.3600006104	-6.4200000763
-5.913000107	19.084249496	-0.868499994	2.0000000000	24.9500007629	-6.8299999237
-5.912250042	19.087499619	-0.869250000	1.0000000000	24.9599990845	-6.8200001717
-5.915249825	19.081249237	-0.867250025	3.0000000000	25.5300006866	-6.2500000000
-5.914249897	19.083499908	-0.867500007	0.0000000000	25.3799991608	-6.4000000954
-5.914249897	19.081249237	-0.865750015	5.0000000000	25.1499996185	-6.6300001144
-5.914999962	19.080749512	-0.864250004	1.0000000000	14.8299999237	-5.4400000572
-5.913750172	19.080999374	-0.865999997	5.0000000000	25.2999992371	-6.4800000191
-5.912250042	19.081249237	-0.864750028	4.0000000000	24.9200000763	-6.8600001335
-5.912749767	19.083250046	-0.865999997	0.0000000000	25.0900001526	-6.6900000572
-5.912250042	19.086999893	-0.866999984	2.0000000000	25.1000003815	-6.6799998283
-5.913750172	19.085500717	-0.865999997	2.0000000000	25.1100006104	-6.6700000763
-5.912499905	19.084999084	-0.864499986	1.0000000000	24.7900009155	-6.9899997711
-5.912749767	19.087249756	-0.865999997	3.0000000000	24.4500007629	-7.3299999237
-5.912499905	19.087749481	-0.865000010	4.0000000000	25.4500007629	-6.3299999237
-5.912000179	19.080999374	-0.869499981	2.0000000000	22.0200004578	-5.4699997902
-5.911499977	19.086999893	-0.871249974	2.0000000000	25.1399993896	-6.6399998665
-5.910250187	19.087499619	-0.871249974	2.0000000000	21.3500003815	-6.1399998665
-5.912000179	19.085750580	-0.869750023	1.0000000000	25.1299991608	-6.6500000954
-5.911499977	19.083499908	-0.867999971	1.0000000000	25.2999992371	-6.4800000191
-5.913750172	19.090749741	-0.879499972	4.0000000000	25.0599994659	-6.7199997902
-5.913000107	19.088249207	-0.876250029	1.0000000000	24.7800006866	-7.0000000000
-5.912499905	19.090999603	-0.877749979	4.0000000000	25.2999992371	-6.4800000191
-5.912250042	19.088750839	-0.875999987	3.0000000000	25.1200008392	-6.6599998474
-5.914000034	19.089750290	-0.873749971	4.0000000000	25.1200008392	-6.6599998474
-5.913000107	19.088499069	-0.872749984	1.0000000000	25.1299991608	-6.6500000954
-5.912250042	19.091249466	-0.873000026	1.0000000000	25.2800006866	-6.5000000000
-5.912250042	19.091999054	-0.872749984	1.0000000000	25.0100002289	-6.7699999809
-5.911250114	19.091499329	-0.879750013	5.0000000000	25.2299995422	-6.5500001907
-5.911749840	19.088249207	-0.876999974	4.0000000000	21.1200008392	-6.3699998856
-5.912000179	19.090499878	-0.878000021	1.0000000000	25.1499996185	-6.6300001144
-5.910749912	19.090749741	-0.876250029	4.0000000000	25.2500000000	-6.5300002098
-5.910250187	19.093750000	-0.879999995	1.0000000000	24.8700008392	-6.9099998474
-5.909999847	19.092250824	-0.878750026	4.0000000000	25.4599990845	-6.3200001717
-5.908999920	19.094249725	-0.878250003	1.0000000000	24.5599994659	-7.2199997902
-5.910999775	19.093250275	-0.878000021	3.0000000000	25.0300006866	-6.7500000000
-5.908500195	19.092750549	-0.877749979	1.0000000000	22.0400009155	-5.4499998093
-5.909999847	19.092250824	-0.876749992	2.0000000000	25.2900009155	-6.4899997711
-5.910999775	19.094749451	-0.876250029	4.0000000000	25.3099994659	-6.4699997902
-5.908249855	19.094749451	-0.876749992	4.0000000000	24.9899997711	-6.7899999619
-5.906499863	19.094749451	-0.879249990	2.0000000000	25.3700008392	-6.4099998474
-5.911499977	19.089750290	-0.875500023	3.0000000000	25.0599994659	-6.7199997902
-5.912000179	19.090000153	-0.874750018	4.0000000000	24.9699993134	-6.8099999428
-5.909999847	19.091249466	-0.875249982	3.0000000000	25.1700000763	-6.6100001335
-5.910999775	19.091499329	-0.872250021	1.0000000000	16.3299999237	-7.4000000954
-5.909249783	19.093750000	-0.875249982	2.0000000000	25.2800006866	-6.5000000000
-5.909999847	19.092250824	-0.874499977	1.0000000000	24.8899993896	-6.8899998665
-5.908500195	19.093999863	-0.875249982	3.0000000000	24.6900005341	-7.0900001526
-5.911499977	19.094749451	-0.872749984	1.0000000000	25.2700004578	-6.5100002289
-5.910250187	19.096750259	-0.879499972	3.0000000000	25.1100006104	-6.6700000763
-5.909999847	19.097000122	-0.879999995	3.0000000000	24.5300006866	-7.2500000000
-5.908249855	19.097249985	-0.878250003	3.0000000000	24.9400005341	-6.8400001526
-5.909749985	19.096000671	-0.876999974	4.0000000000	24.8500003815	-6.9299998283
-5.908249855	19.098499298	-0.876749992	3.0000000000	25.0000000000	-6.7800002098
-5.905749798	19.096750259	-0.879000008	0.0000000000	25.8500003815	-5.9299998283
-5.907249928	19.096250534	-0.876250029	1.0000000000	24.3099994659	-7.4699997902
-5.905250072	19.097999573	-0.877749979	2.0000000000	26.2099990845	-5.5700001717
-5.905499935	19.099000931	-0.877250016	0.0000000000	26.1900005341	-5.5900001526
-5.908750057	19.097000122	-0.875249982	4.0000000000	24.7399997711	-7.0399999619
-5.909999847	19.096750259	-0.873000026	2.0000000000	24.8799991608	-6.9000000954
-5.909749985	19.096500397	-0.872749984	1.0000000000	24.5400009155	-7.2399997711
-5.908500195	19.097999573	-0.873749971	5.0000000000	24.0200004578	-7.7600002289
-5.909249783	19.099000931	-0.873250008	0.0000000000	24.2099990845	-7.5700001717
-5.907999992	19.099750519	-0.875249982	2.0000000000	24.8199996948	-6.9600000381
-5.905499935	19.098249435	-0.875750005	3.0000000000	25.0499992371	-6.7300000191
-5.904500008	19.098249435	-0.875999987	1.0000000000	25.8700008392	-5.9099998474
-5.905000210	19.097499847	-0.874000013	2.0000000000	16.6800003052	-6.7500000000
-5.907750130	19.100500107	-0.873499990	2.0000000000	24.2700004578	-7.5100002289
-5.907249928	19.100999832	-0.873000026	1.0000000000	24.1700000763	-7.6100001335
-5.904250145	19.100250244	-0.872500002	4.0000000000	24.5200004578	-7.2600002289
-5.913000107	19.089750290	-0.864250004	2.0000000000	24.8799991608	-6.9000000954
-5.910500050	19.088249207	-0.871500015	5.0000000000	25.2199993134	-6.5599999428
-5.911499977	19.091249466	-0.871249974	2.0000000000	24.9500007629	-6.8299999237
-5.912000179	19.089750290	-0.869750023	2.0000000000	25.2700004578	-6.5100002289
-5.911250114	19.089500427	-0.868749976	4.0000000000	25.3600006104	-6.4200000763
-5.908999920	19.091749191	-0.868250012	2.0000000000	25.3199996948	-6.4600000381
-5.909999847	19.092500687	-0.871249974	2.0000000000	24.7999992371	-6.9800000191
-5.908999920	19.093750000	-0.870249987	4.0000000000	25.0499992371	-6.7300000191
-5.911499977	19.094749451	-0.871749997	2.0000000000	25.0900001526	-6.6900000572
-5.908999920	19.094749451	-0.871500015	3.0000000000	24.7900009155	-6.9899997711
-5.908500195	19.094499588	-0.870500028	1.0000000000	24.5799999237	-7.1999998093
-5.911499977	19.093000412	-0.869750023	3.0000000000	25.2199993134	-6.5599999428
-5.909749985	19.091999054	-0.869750023	5.0000000000	24.8700008392	-6.9099998474
-5.908750057	19.094999313	-0.868250012	1.0000000000	24.7299995422	-7.0500001907
-5.907750130	19.092250824	-0.871999979	2.0000000000	21.2099990845	-6.2800002098
-5.911749840	19.087999344	-0.867999971	3.0000000000	24.8899993896	-6.8899998665
-5.910500050	19.088499069	-0.866750002	2.0000000000	25.2600002289	-6.5199999809
-5.911499977	19.089250565	-0.866249979	3.0000000000	24.9200000763	-6.8600001335
-5.908750057	19.088750839	-0.866750002	0.0000000000	17.9599990845	-5.4800000191
-5.911250114	19.091249466	-0.867749989	2.0000000000	25.5900001526	-6.1900000572
-5.909249783	19.091499329	-0.867250025	3.0000000000	24.9400005341	-6.8400001526
-5.912000179	19.087999344	-0.864750028	0.0000000000	21.6700000763	-5.8200001717
-5.911250114	19.090999603	-0.864750028	4.0000000000	25.3199996948	-6.4600000381
-5.908999920	19.090999603	-0.865249991	3.0000000000	25.0000000000	-6.7800002098
-5.906750202	19.091499329	-0.864250004	1.0000000000	24.7600002289	-7.0199999809
-5.904500008	19.090999603	-0.865750015	3.0000000000	21.4200000763	-6.0700001717
-5.910500050	19.091999054	-0.866500020	3.0000000000	25.5000000000	-6.2800002098
-5.908999920	19.093500137	-0.866500020	3.0000000000	25.1000003815	-6.6799998283
-5.909999847	19.093250275	-0.865000010	4.0000000000	24.9400005341	-6.8400001526
-5.908500195	19.094499588	-0.865999997	2.0000000000	24.6399993896	-7.1399998665
-5.906499863	19.094999313	-0.867749989	2.0000000000	24.1800003052	-7.5999999046
-5.907499790	19.093500137	-0.865499973	6.0000000000	24.9400005341	-6.8400001526
-5.906750202	19.095500946	-0.865000010	1.0000000000	24.1700000763	-7.6100001335
-5.908249855	19.098249435	-0.871749997	2.0000000000	24.2299995422	-7.5500001907
-5.908249855	19.097749710	-0.869000018	1.0000000000	24.2600002289	-7.5199999809
-5.907999992	19.097499847	-0.871249974	3.0000000000	24.3099994659	-7.4699997902
-5.907999992	19.096000671	-0.870249987	2.0000000000	24.2299995422	-7.5500001907
-5.906750202	19.097749710	-0.870500028	4.0000000000	24.2399997711	-7.5399999619
-5.906250000	19.099750519	-0.870750010	1.0000000000	24.7299995422	-7.0500001907
-5.907999992	19.098249435	-0.868250012	1.0000000000	24.2700004578	-7.5100002289
-5.906499863	19.099750519	-0.868499994	1.0000000000	24.2500000000	-7.5300002098
-5.906250000	19.099750519	-0.868250012	2.0000000000	24.2800006866	-7.5000000000
-5.907499790	19.101249695	-0.871749997	5.0000000000	23.9799995422	-7.8000001907
-5.907000065	19.101999283	-0.870500028	2.0000000000	23.8999996185	-7.8800001144
-5.905749798	19.103000641	-0.868749976	2.0000000000	24.7600002289	-7.0199999809
-5.909500122	19.096000671	-0.867999971	4.0000000000	24.4400005341	-7.3400001526
-5.907750130	19.096000671	-0.866750002	1.0000000000	24.7199993134	-7.0599999428
-5.905499935	19.096250534	-0.867250025	4.0000000000	24.2099990845	-7.5700001717
-5.904250145	19.096750259	-0.866500020	3.0000000000	24.4300003052	-7.3499999046
-5.906750202	19.096250534	-0.865499973	2.0000000000	24.5100002289	-7.2699999809
-5.904749870	19.097749710	-0.864250004	1.0000000000	24.8999996185	-6.8800001144
-5.906499863	19.101749420	-0.866999984	4.0000000000	24.2000007629	-7.5799999237
-5.904250145	19.101999283	-0.867250025	1.0000000000	24.8999996185	-6.8800001144
-5.907249928	19.100749969	-0.865249991	0.0000000000	24.1599998474	-7.6199998856
-5.905250072	19.102249146	-0.865750015	2.0000000000	24.6599998474	-7.1199998856
-5.903250217	19.097249985	-0.879249990	0.0000000000	26.9599990845	-4.8200001717
-5.901999950	19.096500397	-0.879499972	2.0000000000	26.8700008392	-4.9099998474
-5.900249958	19.098249435	-0.878250003	5.0000000000	27.3199996948	-4.4600000381
-5.901999950	19.096500397	-0.877499998	4.0000000000	27.3600006104	-4.4200000763
-5.901750088	19.097000122	-0.878000021	1.0000000000	27.1900005341	-4.5900001526
-5.901000023	19.097000122	-0.876749992	4.0000000000	27.2000007629	-4.5799999237
-5.900000095	19.096750259	-0.879999995	1.0000000000	26.9200000763	-4.8600001335
-5.900000095	19.097249985	-0.879999995	2.0000000000	27.2500000000	-4.5300002098
-5.898749828	19.098749161	-0.879999995	1.0000000000	26.9500007629	-4.8299999237
-5.897250175	19.098249435	-0.878750026	5.0000000000	27.6200008392	-4.1599998474
-5.897999763	19.099750519	-0.878250003	2.0000000000	27.5499992371	-4.2300000191
-5.900000095	19.097249985	-0.877749979	1.0000000000	28.1200008392	-3.6600000858
-5.898499966	19.097749710	-0.877250016	4.0000000000	27.6599998474	-4.1199998856
-5.897250175	19.099250793	-0.877250016	6.0000000000	27.6200008392	-4.1599998474
-5.896749973	19.100749969	-0.878750026	2.0000000000	27.2700004578	-4.5100002289
-5.896249771	19.100500107	-0.876999974	6.0000000000	26.8400001526	-4.9400000572
-5.903500080	19.098249435	-0.874249995	2.0000000000	25.4899997711	-6.2899999619
-5.902999878	19.098499298	-0.874750018	3.0000000000	26.2399997711	-5.5399999619
-5.900750160	19.098499298	-0.875000000	3.0000000000	27.3299999237	-4.4499998093
-5.903500080	19.099250793	-0.872250021	1.0000000000	24.9799995422	-6.8000001907
-5.901500225	19.097999573	-0.873000026	3.0000000000	20.0300006866	-7.4600000381
-5.900750160	19.098499298	-0.872749984	2.0000000000	25.9099998474	-5.8699998856
-5.901500225	19.099500656	-0.873000026	4.0000000000	25.6200008392	-6.1599998474
-5.897250175	19.098499298	-0.875999987	2.0000000000	27.0000000000	-4.7800002098
-5.897500038	19.099000931	-0.874000013	1.0000000000	25.9400005341	-5.8400001526
-5.901999950	19.100000381	-0.874499977	3.0000000000	26.6900005341	-5.0900001526
-5.899499893	19.100250244	-0.875000000	4.0000000000	27.1299991608	-4.6500000954
-5.896999836	19.100749969	-0.875500023	2.0000000000	26.6399993896	-5.1399998665
-5.899250031	19.100500107	-0.873250008	2.0000000000	26.4599990845	-5.3200001717
-5.897250175	19.101749420	-0.873499990	3.0000000000	25.7000007629	-6.0799999237
-5.897500038	19.100000381	-0.872250021	3.0000000000	25.5699996948	-6.2100000381
-5.896249771	19.101749420	-0.872500002	3.0000000000	25.2000007629	-6.5799999237
-5.895249844	19.098749161	-0.879750013	4.0000000000	26.8600006104	-4.9200000763
-5.894999981	19.102500916	-0.879249990	1.0000000000	26.3899993896	-5.3899998665
-5.892250061	19.103750229	-0.878250003	4.0000000000	24.9899997711	-6.7899999619
-5.893750191	19.100000381	-0.877499998	1.0000000000	25.7700004578	-6.0100002289
-5.894750118	19.103750229	-0.877749979	2.0000000000	26.0100002289	-5.7699999809
-5.890250206	19.103500366	-0.879999995	2.0000000000	25.1800003052	-6.5999999046
-5.891749859	19.102750778	-0.878250003	2.0000000000	25.1700000763	-6.6100001335
-5.889249802	19.102500916	-0.878750026	2.0000000000	24.7299995422	-7.0500001907
-5.888249874	19.100000381	-0.876999974	1.0000000000	20.5499992371	-6.9400000572
-5.889750004	19.103250504	-0.876250029	4.0000000000	25.3099994659	-6.4699997902
-5.894750118	19.098249435	-0.875500023	0.0000000000	25.5799999237	-6.1999998093
-5.893499851	19.099750519	-0.875249982	3.0000000000	25.1299991608	-6.6500000954
-5.895249844	19.099500656	-0.872500002	3.0000000000	24.9099998474	-6.8699998856
-5.889999866	19.099500656	-0.874000013	2.0000000000	25.4599990845	-6.3200001717
-5.893499851	19.103000641	-0.875999987	4.0000000000	25.1200008392	-6.6599998474
-5.892250061	19.103250504	-0.875750005	1.0000000000	25.3099994659	-6.4699997902
-5.893000126	19.103250504	-0.874249995	4.0000000000	25.2600002289	-6.5199999809
-5.893499851	19.100000381	-0.872749984	3.0000000000	24.8999996185	-6.8800001144
-5.895750046	19.103250504	-0.873749971	3.0000000000	25.1200008392	-6.6599998474
-5.893750191	19.102249146	-0.872749984	1.0000000000	24.8999996185	-6.8800001144
-5.889500141	19.103250504	-0.874249995	0.0000000000	26.0300006866	-5.7500000000
-5.903749943	19.101499557	-0.871249974	2.0000000000	24.7099990845	-7.0700001717
-5.901000023	19.100999832	-0.871749997	4.0000000000	25.4699993134	-6.3099999428
-5.903999805	19.100000381	-0.870000005	1.0000000000	24.8299999237	-6.9499998093
-5.902999878	19.100749969	-0.869499981	3.0000000000	16.5100002289	-6.9299998283
-5.902500153	19.101499557	-0.870000005	1.0000000000	25.1800003052	-6.5999999046
-5.902500153	19.101999283	-0.869250000	1.0000000000	24.9400005341	-6.8400001526
-5.897999763	19.100000381	-0.871249974	2.0000000000	25.2399997711	-6.5399999619
-5.899499893	19.101249695	-0.869750023	1.0000000000	24.9099998474	-6.8699998856
-5.899250031	19.101749420	-0.868499994	4.0000000000	25.3400001526	-6.4400000572
-5.896249771	19.100500107	-0.870000005	1.0000000000	25.1900005341	-6.5900001526
-5.898250103	19.103000641	-0.870000005	1.0000000000	24.8400001526	-6.9400000572
-5.898749828	19.101999283	-0.868250012	2.0000000000	25.0100002289	-6.7699999809
-5.896749973	19.103000641	-0.868749976	3.0000000000	24.8899993896	-6.8899998665
-5.902750015	19.097999573	-0.867999971	1.0000000000	25.0799999237	-6.6999998093
-5.900750160	19.098499298	-0.867999971	3.0000000000	25.5900001526	-6.1900000572
-5.901999950	19.097000122	-0.865999997	2.0000000000	25.6399993896	-6.1399998665
-5.900000095	19.097249985	-0.866500020	0.0000000000	20.5100002289	-6.9800000191
-5.899750233	19.097249985	-0.865999997	1.0000000000	25.8199996948	-5.9600000381
-5.897250175	19.099750519	-0.865249991	6.0000000000	25.2999992371	-6.4800000191
-5.897250175	19.098499298	-0.864499986	4.0000000000	25.3899993896	-6.3899998665
-5.901249886	19.100000381	-0.866500020	0.0000000000	25.6000003815	-6.1799998283
-5.901999950	19.102750778	-0.867749989	1.0000000000	25.1499996185	-6.6300001144
-5.900499821	19.102750778	-0.866500020	1.0000000000	25.6700000763	-6.1100001335
-5.902750015	19.100250244	-0.864250004	1.0000000000	25.5200004578	-6.2600002289
-5.900499821	19.100749969	-0.864499986	2.0000000000	26.1299991608	-5.6500000954
-5.898250103	19.100250244	-0.866249979	1.0000000000	25.3299999237	-6.4499998093
-5.897250175	19.101749420	-0.867250025	1.0000000000	24.9099998474	-6.8699998856
-5.893249989	19.099500656	-0.870999992	6.0000000000	25.2500000000	-6.5300002098
-5.895500183	19.099500656	-0.868250012	4.0000000000	25.5699996948	-6.2100000381
-5.893499851	19.099750519	-0.868250012	3.0000000000	25.4400005341	-6.3400001526
-5.893249989	19.103750229	-0.870999992	2.0000000000	25.3199996948	-6.4600000381
-5.894750118	19.103500366	-0.869250000	3.0000000000	25.1499996185	-6.6300001144
-5.891250134	19.101749420	-0.871500015	2.0000000000	25.5799999237	-6.1999998093
-5.888500214	19.101249695	-0.871749997	3.0000000000	25.8199996948	-5.9600000381
-5.888999939	19.100000381	-0.870500028	0.0000000000	20.2600002289	-7.2300000191
-5.890749931	19.100999832	-0.869000018	2.0000000000	25.1900005341	-6.5900001526
-5.891250134	19.102249146	-0.870000005	3.0000000000	25.4500007629	-6.3299999237
-5.889249802	19.102500916	-0.869250000	5.0000000000	25.4099998474	-6.3699998856
-5.889750004	19.103750229	-0.870000005	2.0000000000	25.6399993896	-6.1399998665
-5.894499779	19.098249435	-0.866249979	4.0000000000	25.8500003815	-5.9299998283
-5.892000198	19.099750519	-0.866249979	3.0000000000	25.4699993134	-6.3099999428
-5.894999981	19.102249146	-0.867500007	3.0000000000	25.0900001526	-6.6900000572
-5.892499924	19.102750778	-0.867999971	2.0000000000	25.7900009155	-5.9899997711
-5.895500183	19.101249695	-0.865750015	1.0000000000	25.1700000763	-6.6100001335
-5.893499851	19.100000381	-0.865999997	4.0000000000	25.8500003815	-5.9299998283
-5.890749931	19.100999832	-0.866999984	3.0000000000	25.5200004578	-6.2600002289
-5.890250206	19.101499557	-0.866500020	3.0000000000	25.8799991608	-5.9000000954
-5.888999939	19.102249146	-0.867250025	4.0000000000	25.6700000763	-6.1100001335
-5.888999939	19.103250504	-0.866750002	3.0000000000	26.2399997711	-5.5399999619
-5.890999794	19.100250244	-0.865000010	4.0000000000	25.6900005341	-6.0900001526
-5.890500069	19.100749969	-0.864499986	3.0000000000	25.9799995422	-5.8000001907
-5.888750076	19.101749420	-0.865000010	3.0000000000	26.1000003815	-5.6799998283
-5.890250206	19.103000641	-0.865000010	2.0000000000	26.2399997711	-5.5399999619
-5.894999981	19.104999542	-0.895749986	0.0000000000	26.9899997711	-4.7899999619
-5.892749786	19.105249405	-0.896000028	3.0000000000	27.1000003815	-4.6799998283
-5.893499851	19.104499817	-0.894249976	1.0000000000	27.0200004578	-4.7600002289
-5.890250206	19.104249954	-0.894999981	5.0000000000	27.0499992371	-4.7300000191
-5.888750076	19.105499268	-0.893750012	2.0000000000	27.5100002289	-4.2699999809
-5.888500214	19.104000092	-0.887000024	2.0000000000	27.0799999237	-4.6999998093
-5.890250206	19.104000092	-0.885249972	3.0000000000	26.6499996185	-5.1300001144
-5.891250134	19.104249954	-0.883249998	3.0000000000	26.2800006866	-5.5000000000
-5.890500069	19.104249954	-0.882749975	3.0000000000	25.9799995422	-5.8000001907
-5.889999866	19.104999542	-0.881500006	1.0000000000	26.3700008392	-5.4099998474
-5.888999939	19.105749130	-0.880999982	2.0000000000	25.4699993134	-6.3099999428
-5.893499851	19.104000092	-0.879499972	2.0000000000	25.5300006866	-6.2500000000
-5.890749931	19.105749130	-0.878499985	3.0000000000	24.8500003815	-6.9299998283
-5.888249874	19.105749130	-0.879000008	5.0000000000	25.4899997711	-6.2899999619
-5.889500141	19.106000900	-0.879999995	3.0000000000	26.0599994659	-5.7199997902
-5.891749859	19.104499817	-0.876500010	3.0000000000	24.8099994659	-6.9699997902
-5.889249802	19.104499817	-0.876749992	5.0000000000	24.7099990845	-7.0700001717
-5.888249874	19.106750488	-0.876999974	1.0000000000	24.6599998474	-7.1199998856
-5.890250206	19.108249664	-0.877749979	3.0000000000	15.9300003052	-7.5000000000
-5.892749786	19.104249954	-0.873000026	2.0000000000	25.3600006104	-6.4200000763
-5.890999794	19.104000092	-0.874750018	4.0000000000	25.2999992371	-6.4800000191
-5.889500141	19.105749130	-0.875000000	1.0000000000	25.4200000763	-6.3600001335
-5.889999866	19.104499817	-0.873499990	1.0000000000	25.6499996185	-6.1300001144
-5.888750076	19.105749130	-0.874000013	4.0000000000	25.8299999237	-5.9499998093
-5.888750076	19.106250763	-0.873749971	1.0000000000	26.0100002289	-5.7699999809
-5.896249771	19.104249954	-0.870500028	1.0000000000	25.0400009155	-6.7399997711
-5.891499996	19.105499268	-0.871249974	1.0000000000	25.7199993134	-6.0599999428
-5.888500214	19.104499817	-0.871749997	1.0000000000	26.0799999237	-5.6999998093
-5.890749931	19.104249954	-0.868250012	2.0000000000	25.8299999237	-5.9499998093
-5.888249874	19.104499817	-0.869750023	2.0000000000	25.7600002289	-6.0199999809
-5.888999939	19.105249405	-0.868499994	2.0000000000	26.0000000000	-5.7800002098
-5.888750076	19.104749680	-0.865249991	4.0000000000	26.5100002289	-5.2699999809
-5.920249939	19.074750900	-0.861500025	0.0000000000	23.9300003052	-7.8499999046
-5.918749809	19.072500229	-0.863749981	3.0000000000	23.6100006104	-8.1700000763
-5.919499874	19.075750351	-0.863499999	1.0000000000	24.0300006866	-7.7500000000
-5.916999817	19.075500488	-0.864000022	3.0000000000	24.6000003815	-7.1799998283
-5.919250011	19.072999954	-0.861000001	2.0000000000	23.9300003052	-7.8499999046
-5.916500092	19.075250626	-0.860499978	4.0000000000	24.7199993134	-7.0599999428
-5.915500164	19.075750351	-0.861750007	2.0000000000	24.9599990845	-6.8200001717
-5.919250011	19.076250076	-0.863250017	2.0000000000	24.3199996948	-7.4600000381
-5.916500092	19.076999664	-0.864000022	2.0000000000	25.3600006104	-6.4200000763
-5.916500092	19.078750610	-0.864000022	2.0000000000	25.0499992371	-6.7300000191
-5.918749809	19.076499939	-0.861750007	2.0000000000	24.5300006866	-7.2500000000
-5.919000149	19.076000214	-0.861000001	2.0000000000	24.4699993134	-7.3099999428
-5.916999817	19.077999115	-0.861999989	1.0000000000	25.0300006866	-6.7500000000
-5.913000107	19.079750061	-0.864000022	5.0000000000	25.4500007629	-6.3299999237
-5.915999889	19.079750061	-0.861750007	0.0000000000	17.8500003815	-5.5900001526
-5.915500164	19.079500198	-0.861750007	2.0000000000	25.6299991608	-6.1500000954
-5.915750027	19.077999115	-0.860499978	2.0000000000	24.8799991608	-6.9000000954
-5.919250011	19.075250626	-0.860000014	2.0000000000	23.9400005341	-7.8400001526
-5.919499874	19.074499130	-0.858500004	1.0000000000	23.7099990845	-8.0699996948
-5.917749882	19.074499130	-0.859000027	1.0000000000	24.7900009155	-6.9899997711
-5.918499947	19.076999664	-0.858749986	4.0000000000	24.2999992371	-7.4800000191
-5.916500092	19.077249527	-0.859250009	0.0000000000	25.0599994659	-6.7199997902
-5.916500092	19.077749252	-0.859000027	1.0000000000	24.8799991608	-6.9000000954
-5.914750099	19.078250885	-0.859499991	3.0000000000	25.4699993134	-6.3099999428
-5.914999962	19.079250336	-0.859499991	3.0000000000	25.0900001526	-6.6900000572
-5.918000221	19.081249237	-0.863749981	4.0000000000	17.1399993896	-6.3000001907
-5.916250229	19.080499649	-0.862249970	2.0000000000	25.2700004578	-6.5100002289
-5.915750027	19.081750870	-0.864000022	3.0000000000	25.0499992371	-6.7300000191
-5.914999962	19.082250595	-0.862500012	5.0000000000	25.4200000763	-6.3600001335
-5.914750099	19.079999924	-0.860750020	4.0000000000	25.2500000000	-6.5300002098
-5.913499832	19.080499649	-0.861750007	3.0000000000	25.8999996185	-5.8800001144
-5.914000034	19.083499908	-0.860750020	3.0000000000	25.8799991608	-5.9000000954
-5.914000034	19.085500717	-0.863749981	1.0000000000	25.1599998474	-6.6199998856
-5.914000034	19.084749222	-0.862500012	1.0000000000	25.0599994659	-6.7199997902
-5.913000107	19.087749481	-0.862749994	2.0000000000	24.8899993896	-6.8899998665
-5.913000107	19.084499359	-0.861500025	2.0000000000	25.2600002289	-6.5199999809
-5.912250042	19.084499359	-0.861249983	2.0000000000	25.5300006866	-6.2500000000
-5.914000034	19.080999374	-0.859499991	3.0000000000	25.7399997711	-6.0399999619
-5.914500237	19.083000183	-0.859499991	4.0000000000	25.8299999237	-5.9499998093
-5.912250042	19.083000183	-0.859499991	1.0000000000	25.4099998474	-6.3699998856
-5.912749767	19.083999634	-0.859749973	4.0000000000	25.8500003815	-5.9299998283
-5.912499905	19.087749481	-0.859749973	1.0000000000	25.2000007629	-6.5799999237
-5.912250042	19.083999634	-0.857749999	1.0000000000	25.8799991608	-5.9000000954
-5.911250114	19.080499649	-0.863749981	0.0000000000	22.0400009155	-5.4499998093
-5.907249928	19.085500717	-0.862249970	2.0000000000	14.0000000000	-6.7100000381
-5.910999775	19.087499619	-0.858749986	1.0000000000	20.9200000763	-6.5700001717
-5.913000107	19.088499069	-0.862249970	3.0000000000	24.9799995422	-6.8000001907
-5.913249969	19.090250015	-0.862249970	1.0000000000	12.3999996185	-11.3400001526
-5.912250042	19.090999603	-0.862749994	3.0000000000	25.7800006866	-6.0000000000
-5.912250042	19.091499329	-0.861500025	0.0000000000	25.6599998474	-6.1199998856
-5.913000107	19.088750839	-0.859749973	3.0000000000	25.1499996185	-6.6300001144
-5.911250114	19.089750290	-0.863749981	3.0000000000	25.3700008392	-6.4099998474
-5.908249855	19.090250015	-0.863250017	4.0000000000	25.8400001526	-5.9400000572
-5.912000179	19.088750839	-0.861000001	4.0000000000	25.2999992371	-6.4800000191
-5.909999847	19.089000702	-0.861500025	1.0000000000	25.9799995422	-5.8000001907
-5.907000065	19.089750290	-0.862500012	2.0000000000	18.2500000000	-5.1799998283
-5.907999992	19.089750290	-0.861000001	2.0000000000	26.4400005341	-5.3400001526
-5.910999775	19.092750549	-0.862999976	1.0000000000	25.5000000000	-6.2800002098
-5.910749912	19.094249725	-0.861249983	3.0000000000	25.5900001526	-6.1900000572
-5.908999920	19.094499588	-0.860249996	5.0000000000	25.5799999237	-6.1999998093
-5.907999992	19.091999054	-0.863499999	3.0000000000	24.7999992371	-6.9800000191
-5.907499790	19.094749451	-0.863499999	2.0000000000	24.4799995422	-7.3000001907
-5.906499863	19.095500946	-0.862749994	2.0000000000	24.2600002289	-7.5199999809
-5.907000065	19.091999054	-0.861750007	1.0000000000	25.6800003052	-6.0999999046
-5.905000210	19.093000412	-0.860750020	2.0000000000	25.1399993896	-6.6399998665
-5.907999992	19.094499588	-0.861750007	2.0000000000	25.0799999237	-6.6999998093
-5.910749912	19.089250565	-0.859749973	2.0000000000	25.9300003052	-5.8499999046
-5.912000179	19.090999603	-0.859749973	1.0000000000	25.7700004578	-6.0100002289
-5.909249783	19.091249466	-0.858250022	1.0000000000	26.2199993134	-5.5599999428
-5.909249783	19.091499329	-0.858250022	4.0000000000	25.8400001526	-5.9400000572
-5.911499977	19.090749741	-0.857999980	2.0000000000	25.6599998474	-6.1199998856
-5.905250072	19.089500427	-0.860000014	4.0000000000	25.8700008392	-5.9099998474
-5.909999847	19.091999054	-0.860000014	3.0000000000	26.4400005341	-5.3400001526
-5.907999992	19.093750000	-0.858500004	3.0000000000	25.8700008392	-5.9099998474
-5.904500008	19.092250824	-0.858749986	1.0000000000	25.2500000000	-6.5300002098
-5.906499863	19.094999313	-0.858749986	4.0000000000	24.8899993896	-6.8899998665
-5.906499863	19.098249435	-0.863499999	2.0000000000	24.3299999237	-7.4499998093
-5.906750202	19.096500397	-0.861999989	2.0000000000	24.8099994659	-6.9699997902
-5.907499790	19.096000671	-0.860249996	4.0000000000	25.1399993896	-6.6399998665
-5.906499863	19.098499298	-0.860499978	4.0000000000	24.9300003052	-6.8499999046
-5.905250072	19.098499298	-0.861999989	2.0000000000	24.5599994659	-7.2199997902
-5.904250145	19.099500656	-0.861000001	2.0000000000	24.5499992371	-7.2300000191
-5.905250072	19.100000381	-0.863749981	2.0000000000	24.5699996948	-7.2100000381
-5.904500008	19.097249985	-0.859749973	1.0000000000	24.8400001526	-6.9400000572
-5.905749798	19.097999573	-0.858749986	2.0000000000	24.6800003052	-7.0999999046
-5.903500080	19.095249176	-0.862500012	3.0000000000	24.8600006104	-6.9200000763
-5.903999805	19.090499878	-0.859250009	4.0000000000	20.7399997711	-6.7500000000
-5.900249958	19.094499588	-0.859250009	2.0000000000	25.3700008392	-6.4099998474
-5.895249844	19.095249176	-0.861000001	1.0000000000	21.5000000000	-5.9899997711
-5.901500225	19.096500397	-0.863499999	1.0000000000	25.4200000763	-6.3600001335
-5.903250217	19.099000931	-0.862500012	3.0000000000	24.9400005341	-6.8400001526
-5.901000023	19.099750519	-0.862999976	3.0000000000	25.8600006104	-5.9200000763
-5.901999950	19.097249985	-0.861000001	1.0000000000	25.5699996948	-6.2100000381
-5.899250031	19.096500397	-0.863749981	1.0000000000	25.7700004578	-6.0100002289
-5.896249771	19.097249985	-0.862749994	6.0000000000	25.3999996185	-6.3800001144
-5.900000095	19.097749710	-0.861500025	2.0000000000	26.1100006104	-5.6700000763
-5.901999950	19.100250244	-0.861249983	2.0000000000	25.4500007629	-6.3299999237
-5.898499966	19.100000381	-0.863499999	2.0000000000	25.5900001526	-6.1900000572
-5.897999763	19.101249695	-0.862249970	3.0000000000	25.0799999237	-6.6999998093
-5.899250031	19.100250244	-0.861750007	4.0000000000	25.8600006104	-5.9200000763
-5.896500111	19.100000381	-0.860499978	3.0000000000	25.1599998474	-6.6199998856
-5.902750015	19.097499847	-0.859499991	2.0000000000	24.9699993134	-6.8099999428
-5.899750233	19.097749710	-0.859000027	1.0000000000	25.9599990845	-5.8200001717
-5.899000168	19.099250793	-0.860000014	5.0000000000	25.4799995422	-6.3000001907
-5.899750233	19.098749161	-0.858500004	4.0000000000	25.5100002289	-6.2699999809
-5.897749901	19.099750519	-0.859749973	4.0000000000	25.6200008392	-6.1599998474
-5.902249813	19.100000381	-0.859499991	3.0000000000	25.5499992371	-6.2300000191
-5.897749901	19.100000381	-0.858749986	4.0000000000	25.3400001526	-6.4400000572
-5.896999836	19.102750778	-0.858749986	3.0000000000	25.4099998474	-6.3699998856
-5.894000053	19.097249985	-0.864000022	1.0000000000	25.2199993134	-6.5599999428
-5.895500183	19.099250793	-0.864000022	1.0000000000	24.7999992371	-6.9800000191
-5.893750191	19.098249435	-0.863499999	0.0000000000	17.0400009155	-6.3899998665
-5.893000126	19.099250793	-0.863749981	2.0000000000	25.6900005341	-6.0900001526
-5.894999981	19.099000931	-0.861000001	4.0000000000	25.3199996948	-6.4600000381
-5.894499779	19.101999283	-0.864000022	2.0000000000	25.1900005341	-6.5900001526
-5.895750046	19.101999283	-0.862500012	4.0000000000	25.1200008392	-6.6599998474
-5.894750118	19.101249695	-0.860750020	4.0000000000	25.4300003052	-6.3499999046
-5.893499851	19.100250244	-0.861249983	1.0000000000	25.4400005341	-6.3400001526
-5.893249989	19.103000641	-0.861000001	3.0000000000	26.2600002289	-5.5199999809
-5.892000198	19.100749969	-0.863250017	5.0000000000	25.6800003052	-6.0999999046
-5.890999794	19.101499557	-0.862249970	3.0000000000	25.7299995422	-6.0500001907
-5.889999866	19.102249146	-0.863499999	2.0000000000	26.2199993134	-5.5599999428
-5.888999939	19.102500916	-0.862500012	2.0000000000	25.9500007629	-5.8299999237
-5.889750004	19.100000381	-0.860249996	3.0000000000	25.9500007629	-5.8299999237
-5.888249874	19.101749420	-0.860249996	3.0000000000	26.2299995422	-5.5500001907
-5.890500069	19.102500916	-0.861500025	2.0000000000	26.6000003815	-5.1799998283
-5.888750076	19.102500916	-0.860249996	1.0000000000	26.2500000000	-5.5300002098
-5.895249844	19.099500656	-0.858749986	0.0000000000	25.7099990845	-6.0700001717
-5.893499851	19.100749969	-0.859250009	2.0000000000	25.9200000763	-5.8600001335
-5.893499851	19.101249695	-0.859499991	2.0000000000	25.6200008392	-6.1599998474
-5.890749931	19.101499557	-0.860000014	2.0000000000	26.1100006104	-5.6700000763
-5.889500141	19.104999542	-0.863499999	3.0000000000	26.6399993896	-5.1399998665
-5.889249802	19.104749680	-0.861750007	3.0000000000	26.0900001526	-5.6900000572
-5.889249802	19.106000900	-0.858749986	0.0000000000	25.9500007629	-5.8299999237
-5.888500214	19.108249664	-0.859000027	0.0000000000	25.5499992371	-6.2300000191
-5.886499882	19.101499557	-0.895500004	1.0000000000	26.9799995422	-4.8000001907
-5.887499809	19.103750229	-0.895500004	2.0000000000	27.3700008392	-4.4099998474
