1.10850000 1.56299996 -0.37775001 4.000000 30.129999 -2.990000
1.11074996 1.56250000 -0.37799999 1.000000 29.790001 -3.330000
1.10549998 1.56550002 -0.37975001 6.000000 28.379999 -4.740000
1.10650003 1.56474996 -0.37924999 5.000000 29.010000 -4.110000
1.10749996 1.56525004 -0.38000000 8.000000 29.510000 -3.620000
1.10775006 1.56424999 -0.37875000 2.000000 29.700001 -3.420000
1.10574996 1.56750000 -0.37924999 10.000000 27.250000 -5.880000
1.10549998 1.56774998 -0.37875000 5.000000 26.889999 -6.240000
1.10699999 1.56700003 -0.37875000 8.000000 28.209999 -4.920000
1.10650003 1.56500006 -0.37724999 6.000000 27.830000 -5.290000
1.10549998 1.56725001 -0.37700000 7.000000 27.200001 -5.930000
1.10625005 1.56649995 -0.37799999 6.000000 27.750000 -5.380000
1.10850000 1.56400001 -0.37924999 6.000000 29.719999 -3.400000
1.10850000 1.56649995 -0.37850001 10.000000 28.850000 -4.280000
1.10975003 1.56474996 -0.37625000 3.000000 29.190001 -3.940000
1.10800004 1.56575000 -0.37625000 6.000000 28.270000 -4.860000
1.11175001 1.56525004 -0.37799999 4.000000 30.180000 -2.950000
1.11000001 1.56400001 -0.37674999 2.000000 29.840000 -3.290000
1.10975003 1.56599998 -0.37775001 8.000000 29.580000 -3.550000
1.10899997 1.56624997 -0.37700000 9.000000 28.610001 -4.520000
1.11224997 1.56099999 -0.38400000 3.000000 29.500000 -3.630000
1.11300004 1.55999994 -0.38299999 3.000000 29.090000 -4.030000
1.11524999 1.56075001 -0.38275000 4.000000 29.219999 -3.910000
1.11500001 1.56175005 -0.38249999 9.000000 28.900000 -4.230000
1.11275005 1.56175005 -0.38200000 5.000000 29.010000 -4.120000
1.11300004 1.56124997 -0.38049999 3.000000 28.129999 -5.000000
1.11574996 1.56050003 -0.38174999 5.000000 28.570000 -4.560000
1.11399996 1.56124997 -0.38150001 7.000000 28.209999 -4.920000
1.11475003 1.55999994 -0.38075000 5.000000 28.280001 -4.850000
1.11475003 1.56075001 -0.38025001 4.000000 28.410000 -4.720000
1.11300004 1.56200004 -0.38025001 6.000000 28.490000 -4.640000
1.11724997 1.56050003 -0.38350001 6.000000 28.469999 -4.660000
1.11675000 1.56050003 -0.38249999 8.000000 28.620001 -4.510000
1.11749995 1.56149995 -0.38075000 9.000000 28.000000 -5.130000
1.11849999 1.56050003 -0.38025001 7.000000 28.010000 -5.120000
1.11275005 1.56075001 -0.37850001 4.000000 29.420000 -3.700000
1.11424994 1.56175005 -0.37950000 6.000000 28.660000 -4.470000
1.11549997 1.56099999 -0.37875000 7.000000 29.049999 -4.080000
1.11199999 1.56299996 -0.37875000 6.000000 29.450001 -3.680000
1.11224997 1.56124997 -0.37775001 6.000000 30.090000 -3.030000
1.11325002 1.56149995 -0.37650001 4.000000 30.510000 -2.610000
1.11450005 1.56075001 -0.37799999 2.000000 29.320000 -3.810000
1.11549997 1.55999994 -0.37750000 3.000000 29.610001 -3.520000
1.11424994 1.56175005 -0.37724999 7.000000 30.320000 -2.810000
1.11500001 1.56149995 -0.37625000 5.000000 30.330000 -2.800000
1.11224997 1.56250000 -0.37750000 5.000000 30.129999 -3.000000
1.11675000 1.56025004 -0.37850001 7.000000 29.290001 -3.840000
1.11874998 1.56099999 -0.37825000 7.000000 29.129999 -4.000000
1.11650002 1.56025004 -0.37625000 6.000000 30.430000 -2.700000
1.11724997 1.55999994 -0.37700000 5.000000 29.740000 -3.390000
1.11975002 1.56025004 -0.37724999 7.000000 29.090000 -4.040000
1.11849999 1.56075001 -0.37625000 7.000000 29.540001 -3.590000
1.11650002 1.56250000 -0.37724999 7.000000 30.209999 -2.920000
1.11275005 1.56449997 -0.37724999 9.000000 30.480000 -2.650000
1.11500001 1.55499995 -0.37400001 26.000000 13.320000 -20.309999
1.11224997 1.55875003 -0.37375000 7.000000 17.260000 -16.370001
1.11975002 1.55949998 -0.37599999 5.000000 28.959999 -4.170000
1.11625004 1.55799997 -0.37200001 3.000000 20.379999 -13.250000
1.11175001 1.56175005 -0.37525001 4.000000 30.219999 -2.900000
1.11125004 1.56324995 -0.37575001 4.000000 29.620001 -3.510000
1.10699999 1.56575000 -0.37575001 5.000000 27.990000 -5.130000
1.10625005 1.56649995 -0.37575001 5.000000 27.959999 -5.160000
1.10749996 1.56774998 -0.37474999 7.000000 27.110001 -6.020000
1.10950005 1.56550002 -0.37575001 4.000000 28.450001 -4.680000
1.11150002 1.56500006 -0.37599999 5.000000 29.309999 -3.820000
1.11025000 1.56449997 -0.37500000 6.000000 28.799999 -4.330000
1.11099994 1.56649995 -0.37450001 5.000000 28.020000 -5.110000
1.11099994 1.56550002 -0.37325001 3.000000 26.860001 -6.270000
1.11025000 1.56675005 -0.37400001 2.000000 27.980000 -5.150000
1.11350000 1.56274998 -0.37599999 4.000000 30.430000 -2.700000
1.11350000 1.56200004 -0.37474999 3.000000 29.770000 -3.360000
1.11475003 1.56250000 -0.37549999 5.000000 30.350000 -2.780000
1.11524999 1.56200004 -0.37424999 3.000000 29.549999 -3.580000
1.11574996 1.56075001 -0.37349999 3.000000 29.129999 -4.000000
1.11450005 1.56250000 -0.37349999 7.000000 28.950001 -4.180000
1.11749995 1.56099999 -0.37525001 10.000000 29.629999 -3.500000
1.11925006 1.56124997 -0.37474999 8.000000 28.559999 -4.570000
1.11675000 1.56200004 -0.37599999 6.000000 30.100000 -3.030000
1.11625004 1.56250000 -0.37474999 5.000000 30.049999 -3.080000
1.11775005 1.56200004 -0.37474999 8.000000 29.490000 -3.640000
1.11899996 1.56200004 -0.37424999 8.000000 28.920000 -4.210000
1.11749995 1.56050003 -0.37325001 6.000000 28.719999 -4.410000
1.11675000 1.56050003 -0.37224999 4.000000 28.290001 -4.840000
1.11650002 1.56274998 -0.37300000 7.000000 28.299999 -4.830000
1.11275005 1.56474996 -0.37525001 6.000000 29.469999 -3.660000
1.11424994 1.56400001 -0.37450001 8.000000 29.410000 -3.720000
1.11325002 1.56599998 -0.37474999 9.000000 27.780001 -5.350000
1.11374998 1.56449997 -0.37375000 9.000000 28.400000 -4.730000
1.11325002 1.56525004 -0.37325001 7.000000 27.290001 -5.840000
1.11574996 1.56500006 -0.37325001 7.000000 28.510000 -4.620000
1.11374998 1.56700003 -0.37300000 6.000000 26.700001 -6.430000
1.11699998 1.56424999 -0.37275001 3.000000 27.830000 -5.300000
1.12750006 1.54100001 -0.38299999 5.000000 28.620001 -4.500000
1.12899995 1.53625000 -0.38299999 9.000000 28.469999 -4.640000
1.13000000 1.53649998 -0.38374999 3.000000 28.430000 -4.680000
1.13049996 1.53600001 -0.38225001 6.000000 29.150000 -3.960000
1.12849998 1.53799999 -0.38400000 3.000000 28.270000 -4.850000
1.12975001 1.53849995 -0.38325000 11.000000 28.400000 -4.720000
1.12874997 1.53950000 -0.38350001 7.000000 28.209999 -4.910000
1.12874997 1.53600001 -0.38100001 6.000000 29.150000 -3.960000
1.12849998 1.53799999 -0.38200000 5.000000 28.030001 -5.080000
1.12950003 1.53849995 -0.38100001 6.000000 28.510000 -4.610000
1.13100004 1.53824997 -0.38200000 7.000000 29.639999 -3.480000
1.13325000 1.53674996 -0.38075000 6.000000 29.889999 -3.230000
1.13450003 1.53674996 -0.38200000 2.000000 29.750000 -3.370000
1.13325000 1.53849995 -0.38174999 8.000000 29.790001 -3.330000
1.13250005 1.53875005 -0.38075000 5.000000 29.309999 -3.810000
1.13374996 1.53849995 -0.38025001 10.000000 29.820000 -3.300000
1.12874997 1.54050004 -0.38249999 4.000000 28.290001 -4.830000
1.13000000 1.54349995 -0.38400000 4.000000 28.770000 -4.350000
1.12925005 1.54174995 -0.38075000 5.000000 27.920000 -5.200000
1.13000000 1.54100001 -0.38174999 5.000000 28.209999 -4.910000
1.13049996 1.54075003 -0.38049999 6.000000 28.250000 -4.870000
1.13150001 1.54324996 -0.38025001 8.000000 27.920000 -5.200000
1.13325000 1.54100001 -0.38100001 6.000000 29.549999 -3.570000
1.13174999 1.53925002 -0.37825000 6.000000 28.500000 -4.620000
1.13349998 1.53699994 -0.37875000 4.000000 29.379999 -3.740000
1.13475001 1.53625000 -0.37850001 6.000000 29.200001 -3.920000
1.13275003 1.53824997 -0.37950000 4.000000 30.020000 -3.100000
1.13224995 1.53875005 -0.37900001 4.000000 29.740000 -3.380000
1.13399994 1.53875005 -0.37825000 10.000000 29.160000 -3.960000
1.13325000 1.53849995 -0.37750000 5.000000 28.559999 -4.560000
1.13450003 1.53824997 -0.37700000 4.000000 28.230000 -4.890000
1.13049996 1.53999996 -0.37924999 5.000000 28.570000 -4.550000
1.13174999 1.53999996 -0.38000000 8.000000 29.410000 -3.710000
1.13100004 1.54149997 -0.37875000 7.000000 27.500000 -5.620000
1.13074994 1.54024994 -0.37750000 6.000000 27.280001 -5.840000
1.13425004 1.54324996 -0.37875000 10.000000 28.299999 -4.820000
1.13250005 1.54024994 -0.37650001 6.000000 27.260000 -5.860000
1.13475001 1.54100001 -0.37625000 3.000000 26.950001 -6.170000
1.13300002 1.54200006 -0.37625000 7.000000 26.680000 -6.440000
1.13275003 1.54375005 -0.37700000 7.000000 26.959999 -6.160000
1.13499999 1.54250002 -0.37799999 9.000000 27.889999 -5.230000
1.13049996 1.54425001 -0.38225001 9.000000 28.139999 -4.980000
1.13125002 1.54750001 -0.38374999 8.000000 28.610001 -4.520000
1.13174999 1.54700005 -0.38225001 7.000000 28.139999 -4.990000
1.13174999 1.54575002 -0.38049999 2.000000 27.570000 -5.550000
1.13150001 1.54775000 -0.38174999 6.000000 28.240000 -4.890000
1.13125002 1.54849994 -0.38124999 5.000000 28.230000 -4.900000
1.13300002 1.55100000 -0.38374999 7.000000 28.230000 -4.900000
1.13325000 1.54925001 -0.38075000 8.000000 27.980000 -5.150000
1.13275003 1.55174994 -0.38124999 5.000000 28.500000 -4.630000
1.13199997 1.54525006 -0.37950000 8.000000 27.340000 -5.780000
1.13199997 1.54400003 -0.37850001 7.000000 27.270000 -5.850000
1.13325000 1.54575002 -0.37674999 4.000000 26.920000 -6.200000
1.13374996 1.54750001 -0.37799999 7.000000 26.900000 -6.230000
1.13275003 1.54974997 -0.38000000 6.000000 27.809999 -5.320000
1.13325000 1.54799998 -0.37900001 6.000000 26.940001 -6.190000
1.13275003 1.55174994 -0.37924999 5.000000 27.969999 -5.160000
1.13374996 1.55100000 -0.37825000 4.000000 27.280001 -5.850000
1.13425004 1.55025005 -0.37900001 7.000000 27.200001 -5.930000
1.13499999 1.55050004 -0.37724999 6.000000 27.490000 -5.640000
1.13524997 1.55174994 -0.37724999 7.000000 28.049999 -5.080000
1.13450003 1.53600001 -0.37525001 1.000000 18.889999 -14.730000
1.13399994 1.53750002 -0.37575001 8.000000 21.820000 -11.800000
1.13499999 1.54124999 -0.37450001 7.000000 26.230000 -6.890000
1.13450003 1.54299998 -0.37525001 8.000000 26.490000 -6.630000
1.13425004 1.54200006 -0.37250000 1.000000 20.900000 -12.720000
1.12349999 1.55050004 -0.37325001 6.000000 18.850000 -14.770000
1.12750006 1.54849994 -0.37300000 5.000000 22.010000 -11.610000
1.12699997 1.55149996 -0.37375000 6.000000 25.799999 -7.820000
1.13325000 1.54400003 -0.37599999 5.000000 26.490000 -6.630000
1.13399994 1.54575002 -0.37549999 7.000000 26.920000 -6.200000
1.13475001 1.54575002 -0.37474999 2.000000 27.190001 -5.930000
1.13524997 1.54525006 -0.37500000 5.000000 26.559999 -6.560000
1.13250005 1.54600000 -0.37325001 10.000000 24.570000 -9.050000
1.13499999 1.54750001 -0.37325001 9.000000 26.629999 -6.990000
1.13000000 1.55174994 -0.37275001 6.000000 26.680000 -6.940000
1.13524997 1.55174994 -0.37525001 5.000000 29.059999 -4.070000
1.13475001 1.55100000 -0.37275001 6.000000 29.500000 -3.630000
1.13575006 1.54999995 -0.37149999 6.000000 27.010000 -6.610000
1.13800001 1.53600001 -0.38049999 8.000000 28.760000 -4.360000
1.14324999 1.53875005 -0.38374999 10.000000 27.940001 -5.680000
1.14275002 1.53625000 -0.38124999 5.000000 27.000000 -6.620000
1.14199996 1.53600001 -0.38100001 7.000000 25.950001 -7.170000
1.14275002 1.53799999 -0.38025001 9.000000 27.180000 -6.440000
1.13750005 1.53674996 -0.37950000 8.000000 29.139999 -3.980000
1.13625002 1.53600001 -0.37850001 3.000000 28.920000 -4.200000
1.13849998 1.53600001 -0.37924999 6.000000 28.360001 -4.760000
1.13699996 1.53824997 -0.37825000 10.000000 28.200001 -4.920000
1.13600004 1.53900003 -0.37825000 9.000000 28.309999 -4.810000
1.13650000 1.53649998 -0.37674999 5.000000 27.219999 -5.900000
1.13824999 1.53649998 -0.37724999 5.000000 25.940001 -7.680000
1.13900006 1.53775001 -0.37674999 5.000000 26.770000 -6.350000
1.13699996 1.53925002 -0.37700000 4.000000 27.610001 -5.510000
1.13900006 1.53900003 -0.37799999 9.000000 27.820000 -5.300000
1.14224994 1.53625000 -0.37875000 3.000000 25.879999 -7.240000
1.14250004 1.53649998 -0.37875000 5.000000 26.860001 -6.760000
1.14199996 1.53799999 -0.37975001 6.000000 27.080000 -6.540000
1.14349997 1.53925002 -0.37900001 6.000000 26.270000 -6.860000
1.14100003 1.53750002 -0.37650001 8.000000 26.740000 -6.880000
1.14349997 1.53699994 -0.37674999 4.000000 27.370001 -6.250000
1.14024997 1.53824997 -0.37775001 6.000000 27.440001 -5.680000
1.14125001 1.53849995 -0.37674999 7.000000 26.809999 -6.310000
1.14224994 1.53875005 -0.37799999 6.000000 26.709999 -6.410000
1.14324999 1.53799999 -0.37775001 6.000000 27.500000 -6.120000
1.14349997 1.53875005 -0.37625000 8.000000 27.900000 -5.720000
1.13600004 1.54149997 -0.37724999 7.000000 27.389999 -5.730000
1.13650000 1.53999996 -0.37650001 5.000000 27.190001 -5.930000
1.14224994 1.54075003 -0.37650001 6.000000 26.809999 -6.320000
1.14349997 1.54050004 -0.37625000 5.000000 26.990000 -6.140000
1.14450002 1.53699994 -0.38225001 8.000000 27.639999 -5.980000
1.14450002 1.53799999 -0.38225001 7.000000 25.590000 -7.540000
1.14549994 1.53900003 -0.38275000 7.000000 28.270000 -5.350000
1.14649999 1.53849995 -0.38400000 10.000000 25.799999 -7.330000
1.14649999 1.53950000 -0.38374999 4.000000 28.780001 -4.840000
1.14674997 1.53974998 -0.38374999 4.000000 25.719999 -7.410000
1.14475000 1.53600001 -0.38174999 8.000000 27.299999 -6.310000
1.14400005 1.53750002 -0.38025001 6.000000 25.030001 -8.090000
1.14400005 1.53824997 -0.38124999 8.000000 27.610001 -6.010000
1.14575005 1.53824997 -0.38174999 7.000000 28.160000 -5.450000
1.14450002 1.53974998 -0.38049999 10.000000 28.660000 -4.960000
1.14625001 1.53925002 -0.38124999 5.000000 25.320000 -7.810000
1.14625001 1.53974998 -0.38124999 4.000000 28.940001 -4.680000
1.14725006 1.54075003 -0.38325000 4.000000 29.049999 -4.570000
1.14674997 1.54050004 -0.38225001 6.000000 28.930000 -4.690000
1.14625001 1.54250002 -0.38225001 10.000000 29.799999 -3.820000
1.14900005 1.54174995 -0.38275000 3.000000 25.709999 -7.420000
1.14800000 1.54324996 -0.38374999 9.000000 29.610001 -4.010000
1.14800000 1.54275000 -0.38275000 6.000000 29.520000 -4.100000
1.14824998 1.54050004 -0.38075000 3.000000 29.650000 -3.960000
1.14950001 1.54375005 -0.38174999 11.000000 29.850000 -3.760000
1.14849997 1.54349995 -0.38100001 5.000000 30.080000 -3.540000
1.14974999 1.54324996 -0.38100001 6.000000 25.900000 -7.230000
1.14499998 1.53750002 -0.37850001 8.000000 27.860001 -5.750000
1.14625001 1.53799999 -0.37900001 8.000000 28.580000 -5.030000
1.14649999 1.53950000 -0.37875000 7.000000 29.320000 -4.290000
1.14425004 1.53900003 -0.37750000 4.000000 26.450001 -6.680000
1.14575005 1.53900003 -0.37775001 6.000000 29.219999 -4.390000
1.14400005 1.53925002 -0.37674999 9.000000 28.520000 -5.100000
1.14699996 1.54024994 -0.37975001 6.000000 25.840000 -7.290000
1.14699996 1.54050004 -0.37975001 5.000000 29.410000 -4.200000
1.14775002 1.54174995 -0.37924999 5.000000 30.320000 -3.290000
1.14649999 1.54075003 -0.37900001 8.000000 26.120001 -7.010000
1.14674997 1.54149997 -0.37850001 7.000000 30.389999 -3.230000
1.14475000 1.54075003 -0.37750000 7.000000 26.650000 -6.480000
1.14499998 1.54050004 -0.37625000 10.000000 29.040001 -4.580000
1.14649999 1.54100001 -0.37750000 5.000000 30.410000 -3.210000
1.14775002 1.54100001 -0.37775001 6.000000 27.040001 -6.090000
1.14950001 1.54174995 -0.38000000 5.000000 30.020000 -3.590000
1.14974999 1.54250002 -0.37825000 7.000000 30.559999 -3.050000
1.14974999 1.54324996 -0.37900001 4.000000 26.680000 -6.450000
1.15125000 1.54375005 -0.38000000 2.000000 26.889999 -6.250000
1.14900005 1.54100001 -0.37650001 6.000000 30.500000 -3.110000
1.14800000 1.54275000 -0.37775001 10.000000 30.910000 -2.700000
1.14824998 1.54324996 -0.37750000 6.000000 26.700001 -6.430000
1.14925003 1.54225004 -0.37674999 7.000000 27.040001 -6.090000
1.15050006 1.54375005 -0.37799999 4.000000 30.740000 -2.870000
1.13600004 1.54400003 -0.37625000 7.000000 26.709999 -6.410000
1.13600004 1.55100000 -0.37674999 7.000000 27.799999 -5.330000
1.15075004 1.54449999 -0.38400000 5.000000 29.570000 -4.040000
1.15024996 1.54400003 -0.38299999 7.000000 29.670000 -3.940000
1.14999998 1.54425001 -0.38075000 8.000000 30.309999 -3.300000
1.14824998 1.54425001 -0.37950000 9.000000 30.570000 -3.050000
1.14950001 1.54550004 -0.37924999 10.000000 30.540001 -3.080000
1.15174997 1.54474998 -0.37950000 8.000000 30.040001 -3.570000
1.14900005 1.54400003 -0.37700000 10.000000 30.809999 -2.800000
1.15149999 1.54499996 -0.37724999 6.000000 30.510000 -3.100000
1.15024996 1.54499996 -0.37650001 7.000000 31.059999 -2.550000
1.15050006 1.54499996 -0.37650001 5.000000 26.940001 -6.200000
1.15149999 1.54624999 -0.37775001 10.000000 30.900000 -2.710000
1.13650000 1.53750002 -0.37575001 6.000000 26.980000 -6.140000
1.13625002 1.53674996 -0.37424999 7.000000 19.730000 -13.890000
1.13699996 1.53725004 -0.37500000 3.000000 22.420000 -11.200000
1.13874996 1.53725004 -0.37525001 5.000000 24.760000 -8.860000
1.13800001 1.53750002 -0.37549999 7.000000 26.830000 -6.290000
1.13650000 1.53875005 -0.37500000 6.000000 26.190001 -6.930000
1.13900006 1.53799999 -0.37599999 5.000000 25.830000 -7.790000
1.13849998 1.53900003 -0.37525001 7.000000 26.620001 -6.500000
1.13824999 1.53925002 -0.37474999 7.000000 25.180000 -8.440000
1.13750005 1.53875005 -0.37375000 2.000000 22.790001 -10.830000
1.13800001 1.53799999 -0.37300000 1.000000 20.790001 -12.830000
1.14075005 1.53950000 -0.37575001 7.000000 27.139999 -6.480000
1.14024997 1.53950000 -0.37525001 3.000000 26.740000 -6.380000
1.13874996 1.54024994 -0.37500000 2.000000 26.580000 -7.040000
1.13849998 1.54024994 -0.37450001 7.000000 26.650000 -6.470000
1.13674998 1.54250002 -0.37525001 4.000000 26.590000 -6.530000
1.13724995 1.54225004 -0.37599999 6.000000 26.480000 -6.640000
1.13625002 1.54250002 -0.37424999 7.000000 25.730000 -7.890000
1.13824999 1.54200006 -0.37500000 5.000000 26.760000 -6.360000
1.13900006 1.54024994 -0.37275001 5.000000 23.799999 -9.820000
1.14125001 1.54024994 -0.37424999 4.000000 26.820000 -6.800000
1.14125001 1.54174995 -0.37450001 4.000000 26.940001 -6.190000
1.14324999 1.54124999 -0.37525001 6.000000 26.990000 -6.140000
1.14275002 1.54050004 -0.37474999 6.000000 27.549999 -6.070000
1.14275002 1.54149997 -0.37450001 4.000000 26.940001 -6.190000
1.14125001 1.54299998 -0.37424999 6.000000 27.209999 -5.920000
1.14075005 1.54250002 -0.37349999 6.000000 26.930000 -6.690000
1.14100003 1.54375005 -0.37349999 3.000000 27.400000 -5.730000
1.14250004 1.54250002 -0.37375000 4.000000 27.049999 -6.080000
1.14374995 1.54375005 -0.37375000 7.000000 27.830000 -5.790000
1.14374995 1.54275000 -0.37300000 4.000000 27.350000 -6.270000
1.14374995 1.54275000 -0.37275001 4.000000 26.780001 -6.350000
1.14199996 1.54299998 -0.37275001 4.000000 26.950001 -6.180000
1.14425004 1.53900003 -0.37549999 5.000000 26.600000 -6.520000
1.14499998 1.53974998 -0.37525001 7.000000 28.160000 -5.460000
1.14849997 1.53974998 -0.37450001 5.000000 28.700001 -4.910000
1.14524996 1.54149997 -0.37525001 3.000000 27.090000 -6.040000
1.14725006 1.54124999 -0.37575001 8.000000 29.469999 -4.140000
1.14524996 1.54250002 -0.37500000 4.000000 27.290001 -5.840000
1.14649999 1.54250002 -0.37450001 5.000000 29.240000 -4.380000
1.14699996 1.54275000 -0.37424999 6.000000 27.160000 -5.970000
1.14400005 1.54124999 -0.37400001 7.000000 27.820000 -5.800000
1.14499998 1.54349995 -0.37375000 6.000000 26.660000 -6.470000
1.14625001 1.54275000 -0.37349999 7.000000 27.340000 -5.790000
1.14775002 1.54375005 -0.37349999 10.000000 29.370001 -4.240000
1.14775002 1.54324996 -0.37275001 7.000000 28.549999 -5.060000
1.14849997 1.54275000 -0.37525001 11.000000 29.889999 -3.720000
1.14874995 1.54324996 -0.37575001 7.000000 30.490000 -3.120000
1.14824998 1.54324996 -0.37525001 1.000000 26.969999 -6.160000
1.15075004 1.54375005 -0.37275001 6.000000 29.770000 -3.840000
1.13699996 1.54525006 -0.37450001 6.000000 26.780001 -6.350000
1.13950002 1.54499996 -0.37474999 8.000000 26.680000 -6.450000
1.13600004 1.54499996 -0.37375000 6.000000 26.490000 -7.130000
1.13824999 1.54474998 -0.37400001 2.000000 27.270000 -5.860000
1.13674998 1.54624999 -0.37375000 4.000000 26.920000 -6.210000
1.13925004 1.54649997 -0.37349999 4.000000 27.770000 -5.360000
1.13874996 1.54775000 -0.37300000 4.000000 28.000000 -5.130000
1.13849998 1.54725003 -0.37224999 6.000000 26.969999 -6.650000
1.14049995 1.54449999 -0.37424999 9.000000 27.020000 -6.110000
1.14024997 1.54474998 -0.37375000 5.000000 27.700001 -5.430000
1.14174998 1.54400003 -0.37250000 7.000000 27.309999 -5.820000
1.14324999 1.54499996 -0.37250000 5.000000 27.350000 -6.270000
1.14075005 1.54700005 -0.37325001 5.000000 28.120001 -5.010000
1.14199996 1.54725003 -0.37224999 5.000000 28.450001 -4.680000
1.13600004 1.54849994 -0.37424999 8.000000 27.730000 -5.400000
1.13650000 1.54999995 -0.37575001 5.000000 27.799999 -5.330000
1.13600004 1.55050004 -0.37450001 7.000000 28.809999 -4.320000
1.13750005 1.54824996 -0.37375000 4.000000 27.469999 -5.660000
1.13849998 1.54849994 -0.37224999 6.000000 28.030001 -5.100000
1.13674998 1.55050004 -0.37375000 8.000000 28.559999 -4.570000
1.13775003 1.54999995 -0.37349999 6.000000 27.840000 -5.290000
1.13724995 1.55025005 -0.37250000 3.000000 28.969999 -4.160000
1.14349997 1.54824996 -0.37325001 9.000000 28.010000 -5.120000
1.13874996 1.54525006 -0.37175000 5.000000 28.340000 -4.790000
1.14174998 1.54700005 -0.37149999 5.000000 27.719999 -5.900000
1.14275002 1.54624999 -0.37200001 3.000000 27.889999 -5.240000
1.13849998 1.54949999 -0.37200001 4.000000 28.510000 -4.620000
1.13750005 1.55174994 -0.37200001 7.000000 29.129999 -4.000000
1.13874996 1.55149996 -0.37175000 7.000000 29.010000 -4.120000
1.14049995 1.54875004 -0.37200001 5.000000 27.959999 -5.170000
1.14224994 1.54875004 -0.37149999 6.000000 28.600000 -4.530000
1.14049995 1.55025005 -0.37149999 5.000000 28.760000 -4.370000
1.14775002 1.54700005 -0.37474999 11.000000 30.570000 -3.050000
1.14649999 1.54449999 -0.37325001 6.000000 26.790001 -6.340000
1.14524996 1.54624999 -0.37300000 4.000000 27.200001 -5.930000
1.14725006 1.54649997 -0.37250000 8.000000 27.459999 -5.670000
1.14925003 1.54400003 -0.37424999 7.000000 30.250000 -3.360000
1.15050006 1.54400003 -0.37549999 5.000000 30.580000 -3.030000
1.15075004 1.54449999 -0.37525001 6.000000 27.350000 -5.780000
1.15100002 1.54550004 -0.37474999 5.000000 27.530001 -5.610000
1.15100002 1.54550004 -0.37450001 4.000000 30.500000 -3.110000
1.14974999 1.54525006 -0.37375000 2.000000 27.790001 -5.340000
1.14925003 1.54575002 -0.37300000 7.000000 27.190001 -5.940000
1.15050006 1.54425001 -0.37300000 7.000000 27.690001 -5.440000
1.15149999 1.54624999 -0.37250000 9.000000 30.790001 -2.820000
1.14725006 1.54425001 -0.37200001 6.000000 27.299999 -5.830000
1.14625001 1.54499996 -0.37149999 6.000000 28.520000 -5.100000
1.14600003 1.54575002 -0.37149999 4.000000 27.889999 -5.240000
1.14425004 1.54624999 -0.37175000 4.000000 27.410000 -5.720000
1.14900005 1.54425001 -0.37200001 9.000000 29.219999 -4.390000
1.14925003 1.54600000 -0.37175000 9.000000 29.969999 -3.640000
1.14824998 1.54700005 -0.37149999 4.000000 28.410000 -4.720000
1.15024996 1.54624999 -0.37200001 5.000000 28.150000 -4.990000
1.15050006 1.54600000 -0.37200001 11.000000 30.450001 -3.160000
1.12300003 1.55675006 -0.38350001 4.000000 28.340000 -4.790000
1.12199998 1.55750000 -0.38225001 4.000000 27.860001 -5.270000
1.12150002 1.55900002 -0.38325000 4.000000 28.090000 -5.040000
1.12249994 1.55974996 -0.38400000 8.000000 28.420000 -4.710000
1.12374997 1.55750000 -0.38150001 5.000000 28.379999 -4.750000
1.12074995 1.55824995 -0.38075000 5.000000 28.389999 -4.740000
1.12224996 1.55925000 -0.38200000 7.000000 28.100000 -5.030000
1.12249994 1.55824995 -0.38049999 4.000000 28.340000 -4.790000
1.12349999 1.55850005 -0.38075000 5.000000 28.340000 -4.790000
1.12475002 1.55750000 -0.38249999 7.000000 28.309999 -4.820000
1.12724996 1.55774999 -0.38299999 6.000000 28.410000 -4.720000
1.12399995 1.55925000 -0.38299999 8.000000 28.290001 -4.840000
1.12600005 1.55850005 -0.38325000 2.000000 28.280001 -4.850000
1.12699997 1.55875003 -0.38249999 7.000000 28.520000 -4.610000
1.12425005 1.55725002 -0.38025001 5.000000 28.440001 -4.690000
1.12500000 1.55700004 -0.38100001 6.000000 28.450001 -4.680000
1.12775004 1.55799997 -0.38150001 6.000000 28.799999 -4.330000
1.12049997 1.55774999 -0.37850001 7.000000 28.260000 -4.870000
1.12325001 1.55725002 -0.37950000 4.000000 29.049999 -4.080000
1.12199998 1.55875003 -0.37975001 6.000000 28.490000 -4.640000
1.12325001 1.55925000 -0.37850001 8.000000 28.780001 -4.350000
1.12049997 1.55824995 -0.37674999 4.000000 28.700001 -4.430000
1.12074995 1.55925000 -0.37625000 4.000000 28.809999 -4.320000
1.12224996 1.55949998 -0.37775001 6.000000 28.650000 -4.480000
1.12349999 1.55875003 -0.37674999 4.000000 28.709999 -4.420000
1.12425005 1.55725002 -0.37825000 8.000000 28.520000 -4.610000
1.12549996 1.55774999 -0.37900001 4.000000 28.639999 -4.490000
1.12600005 1.55750000 -0.38000000 6.000000 28.719999 -4.410000
1.12425005 1.55949998 -0.37924999 7.000000 28.700001 -4.430000
1.12750006 1.55850005 -0.37900001 9.000000 28.530001 -4.600000
1.12524998 1.55649996 -0.37775001 5.000000 28.820000 -4.310000
1.12475002 1.55675006 -0.37674999 5.000000 28.660000 -4.470000
1.12524998 1.55974996 -0.37775001 8.000000 28.690001 -4.440000
1.12500000 1.55799997 -0.37650001 9.000000 28.840000 -4.290000
1.12625003 1.55799997 -0.37625000 7.000000 28.450001 -4.680000
1.13074994 1.55575001 -0.38350001 3.000000 28.940001 -4.190000
1.13224995 1.55225003 -0.38299999 6.000000 29.150000 -3.980000
1.13399994 1.55299997 -0.38374999 8.000000 28.760000 -4.370000
1.13399994 1.55575001 -0.38275000 7.000000 29.110001 -4.030000
1.13325000 1.55350006 -0.38100001 4.000000 28.719999 -4.410000
1.13300002 1.55525005 -0.38200000 6.000000 28.799999 -4.330000
1.13224995 1.55575001 -0.38075000 5.000000 29.080000 -4.050000
1.13024998 1.55649996 -0.38275000 5.000000 29.180000 -3.950000
1.12849998 1.55875003 -0.38374999 8.000000 28.790001 -4.340000
1.12925005 1.55824995 -0.38275000 3.000000 28.980000 -4.150000
1.13024998 1.55824995 -0.38374999 7.000000 29.160000 -3.980000
1.12925005 1.55599999 -0.38174999 4.000000 29.260000 -3.870000
1.12975001 1.55599999 -0.38049999 5.000000 29.219999 -3.910000
1.13174999 1.55624998 -0.38200000 3.000000 29.200001 -3.930000
1.12950003 1.55850005 -0.38075000 4.000000 29.000000 -4.130000
1.13024998 1.55824995 -0.38174999 9.000000 28.900000 -4.230000
1.13174999 1.55925000 -0.38049999 7.000000 29.260000 -3.880000
1.13349998 1.55774999 -0.38350001 8.000000 28.969999 -4.170000
1.13399994 1.55599999 -0.38100001 7.000000 29.049999 -4.090000
1.13224995 1.55799997 -0.38200000 10.000000 29.129999 -4.010000
1.13100004 1.55525005 -0.37750000 4.000000 28.930000 -4.200000
1.13325000 1.55350006 -0.37924999 6.000000 28.280001 -4.850000
1.13425004 1.55274999 -0.38000000 7.000000 28.170000 -4.960000
1.13300002 1.55550003 -0.38000000 4.000000 28.559999 -4.570000
1.13399994 1.55575001 -0.37875000 6.000000 29.010000 -4.120000
1.13349998 1.55200005 -0.37799999 8.000000 28.059999 -5.070000
1.13349998 1.55250001 -0.37750000 5.000000 28.440001 -4.690000
1.13450003 1.55200005 -0.37650001 6.000000 28.290001 -4.840000
1.13425004 1.55499995 -0.37724999 5.000000 29.120001 -4.010000
1.13399994 1.55575001 -0.37674999 7.000000 29.190001 -3.940000
1.12950003 1.55750000 -0.37950000 4.000000 29.040001 -4.090000
1.13024998 1.55649996 -0.37875000 5.000000 29.400000 -3.730000
1.12825000 1.55824995 -0.37950000 6.000000 28.750000 -4.380000
1.12975001 1.55925000 -0.37875000 10.000000 28.540001 -4.590000
1.12950003 1.55750000 -0.37750000 6.000000 28.790001 -4.340000
1.13100004 1.55624998 -0.37750000 5.000000 29.180000 -3.950000
1.13125002 1.55774999 -0.37700000 3.000000 29.090000 -4.040000
1.12899995 1.55925000 -0.37750000 7.000000 28.500000 -4.630000
1.12950003 1.55875003 -0.37674999 4.000000 29.139999 -3.990000
1.13074994 1.55824995 -0.37799999 7.000000 29.020000 -4.110000
1.13199997 1.55675006 -0.38000000 2.000000 28.910000 -4.220000
1.13349998 1.55750000 -0.37924999 6.000000 29.150000 -3.990000
1.13250005 1.55824995 -0.38000000 7.000000 29.150000 -3.990000
1.13374996 1.55649996 -0.37799999 5.000000 28.639999 -4.490000
1.13325000 1.55750000 -0.37724999 9.000000 29.230000 -3.910000
1.12150002 1.56050003 -0.38299999 6.000000 27.920000 -5.210000
1.12150002 1.56050003 -0.38100001 8.000000 28.270000 -4.860000
1.12000000 1.56050003 -0.37924999 8.000000 28.520000 -4.610000
1.12125003 1.56025004 -0.37875000 8.000000 28.629999 -4.500000
1.12425005 1.56075001 -0.37674999 7.000000 28.500000 -4.630000
1.12874997 1.55999994 -0.38150001 8.000000 28.680000 -4.460000
1.12899995 1.56050003 -0.37750000 10.000000 28.120001 -5.020000
1.13199997 1.55999994 -0.37650001 8.000000 29.120001 -4.020000
1.12175000 1.55350006 -0.37300000 5.000000 21.530001 -12.100000
1.12349999 1.55324996 -0.37349999 6.000000 24.430000 -9.190000
1.12450004 1.55449998 -0.37275001 6.000000 25.650000 -7.970000
1.12750006 1.55425000 -0.37224999 6.000000 26.740000 -6.880000
1.12074995 1.55925000 -0.37424999 3.000000 28.580000 -4.550000
1.12199998 1.55875003 -0.37549999 4.000000 28.850000 -4.280000
1.12000000 1.55649996 -0.37275001 2.000000 23.389999 -10.240000
1.12500000 1.55974996 -0.37575001 6.000000 28.620001 -4.510000
1.12475002 1.55799997 -0.37424999 4.000000 28.270000 -4.860000
1.12750006 1.55949998 -0.37450001 6.000000 28.299999 -4.830000
1.12775004 1.55974996 -0.37250000 3.000000 28.209999 -4.920000
1.13174999 1.55525005 -0.37424999 5.000000 29.360001 -3.770000
1.13174999 1.55274999 -0.37375000 6.000000 29.230000 -3.900000
1.13024998 1.55550003 -0.37325001 5.000000 29.490000 -3.640000
1.13150001 1.55575001 -0.37349999 8.000000 29.280001 -3.850000
1.13450003 1.55299997 -0.37599999 5.000000 28.750000 -4.380000
1.13425004 1.55350006 -0.37549999 2.000000 29.100000 -4.030000
1.13475001 1.55274999 -0.37474999 3.000000 29.280001 -3.850000
1.13199997 1.55400002 -0.37549999 4.000000 29.270000 -3.860000
1.13425004 1.55525005 -0.37525001 5.000000 29.280001 -3.850000
1.13275003 1.55200005 -0.37300000 5.000000 29.750000 -3.380000
1.13450003 1.55299997 -0.37400001 6.000000 29.250000 -3.880000
1.13300002 1.55525005 -0.37375000 9.000000 29.559999 -3.570000
1.13399994 1.55449998 -0.37325001 7.000000 29.809999 -3.320000
1.13174999 1.55649996 -0.37599999 7.000000 29.049999 -4.080000
1.13100004 1.55624998 -0.37549999 4.000000 29.230000 -3.900000
1.13074994 1.55725002 -0.37474999 4.000000 29.190001 -3.940000
1.12825000 1.55824995 -0.37525001 7.000000 28.629999 -4.500000
1.13000000 1.55824995 -0.37549999 2.000000 29.299999 -3.830000
1.12800002 1.55850005 -0.37325001 4.000000 28.250000 -4.880000
1.12825000 1.55925000 -0.37300000 8.000000 27.910000 -5.220000
1.13024998 1.55799997 -0.37400001 8.000000 29.360001 -3.770000
1.13024998 1.55850005 -0.37349999 6.000000 29.400000 -3.730000
1.13250005 1.55624998 -0.37250000 1.000000 29.420000 -3.710000
1.13250005 1.55974996 -0.37325001 8.000000 29.700001 -3.440000
1.13250005 1.55375004 -0.37200001 6.000000 29.900000 -3.230000
1.13450003 1.55324996 -0.37200001 6.000000 30.129999 -3.000000
1.13275003 1.55750000 -0.37200001 7.000000 29.740000 -3.390000
1.13399994 1.55675006 -0.37200001 9.000000 29.860001 -3.270000
1.12049997 1.56124997 -0.37549999 9.000000 29.070000 -4.060000
1.12325001 1.56175005 -0.37549999 4.000000 29.120001 -4.010000
1.12074995 1.56075001 -0.37400001 4.000000 28.570000 -4.560000
1.12000000 1.56075001 -0.37325001 7.000000 28.459999 -4.670000
1.12125003 1.56025004 -0.37250000 7.000000 28.270000 -4.860000
1.12275004 1.56025004 -0.37375000 4.000000 28.160000 -4.970000
1.12300003 1.56175005 -0.37349999 7.000000 28.379999 -4.750000
1.12374997 1.56149995 -0.37224999 4.000000 27.990000 -5.140000
1.12024999 1.56225002 -0.37275001 8.000000 28.129999 -5.000000
1.12000000 1.56299996 -0.37275001 5.000000 28.059999 -5.070000
1.12199998 1.56274998 -0.37250000 7.000000 27.969999 -5.160000
1.12450004 1.56025004 -0.37525001 4.000000 28.590000 -4.540000
1.12425005 1.56099999 -0.37474999 8.000000 28.940001 -4.190000
1.12699997 1.56025004 -0.37549999 7.000000 28.549999 -4.580000
1.12625003 1.56124997 -0.37424999 8.000000 28.450001 -4.680000
1.12524998 1.56124997 -0.37325001 5.000000 27.840000 -5.290000
1.12625003 1.56025004 -0.37300000 4.000000 27.620001 -5.510000
1.12650001 1.56149995 -0.37224999 3.000000 28.020000 -5.110000
1.12524998 1.56200004 -0.37300000 5.000000 28.110001 -5.020000
1.12975001 1.56124997 -0.37575001 10.000000 28.350000 -4.790000
1.13024998 1.56025004 -0.37500000 7.000000 29.110001 -4.030000
1.12800002 1.56149995 -0.37375000 6.000000 28.340000 -4.790000
1.13199997 1.56025004 -0.37250000 6.000000 29.629999 -3.510000
1.13224995 1.56274998 -0.37349999 7.000000 28.860001 -4.280000
1.13625002 1.55200005 -0.37549999 9.000000 28.480000 -4.650000
1.13724995 1.55274999 -0.37325001 9.000000 29.200001 -3.930000
1.13750005 1.55400002 -0.37400001 4.000000 29.209999 -3.920000
1.13600004 1.55425000 -0.37300000 7.000000 30.150000 -2.980000
1.13800001 1.55474997 -0.37224999 7.000000 29.950001 -3.180000
1.13625002 1.55649996 -0.37200001 8.000000 30.080000 -3.060000
1.09924996 1.56949997 -0.38275000 7.000000 27.440001 -5.680000
1.09650004 1.57149994 -0.38299999 46.000000 17.059999 -16.400000
1.09749997 1.57099998 -0.38225001 8.000000 17.889999 -15.570000
1.09850001 1.56974995 -0.38124999 18.000000 17.950001 -15.510000
1.09899998 1.57149994 -0.38025001 3.000000 18.910000 -14.550000
1.10125005 1.56974995 -0.38299999 5.000000 28.090000 -5.040000
1.10249996 1.56850004 -0.38350001 7.000000 28.750000 -4.380000
1.10374999 1.56799996 -0.38299999 5.000000 28.410000 -4.720000
1.10325003 1.57050002 -0.38275000 8.000000 27.900000 -5.230000
1.10175002 1.56949997 -0.38200000 6.000000 27.840000 -5.290000
1.10249996 1.56850004 -0.38124999 3.000000 27.650000 -5.480000
1.10300004 1.56799996 -0.38174999 4.000000 27.840000 -5.290000
1.10000002 1.57175004 -0.38200000 4.000000 26.559999 -6.570000
1.10125005 1.57124996 -0.38025001 4.000000 26.760000 -6.370000
1.10224998 1.57124996 -0.38150001 3.000000 26.930000 -6.200000
1.10350001 1.57124996 -0.38100001 7.000000 27.389999 -5.740000
1.09800005 1.57200003 -0.38325000 20.000000 21.389999 -12.070000
1.09949994 1.57225001 -0.38325000 4.000000 26.750000 -6.380000
1.09700000 1.57400000 -0.38374999 3.000000 21.200001 -12.250000
1.09924996 1.57550001 -0.38400000 6.000000 25.700001 -7.430000
1.09850001 1.57574999 -0.38275000 3.000000 24.770000 -8.360000
1.09850001 1.57474995 -0.38174999 5.000000 21.709999 -11.740000
1.09924996 1.57424998 -0.38200000 6.000000 25.330000 -7.800000
1.10274994 1.57325006 -0.38299999 9.000000 27.430000 -5.700000
1.10099995 1.57550001 -0.38299999 4.000000 26.000000 -7.130000
1.10125005 1.57225001 -0.38150001 4.000000 26.850000 -6.280000
1.10049999 1.57225001 -0.38025001 2.000000 26.000000 -7.130000
1.10074997 1.57400000 -0.38174999 3.000000 25.820000 -7.310000
1.10150003 1.56949997 -0.37975001 5.000000 26.809999 -6.320000
1.10325003 1.56949997 -0.37950000 2.000000 26.790001 -6.340000
1.10374999 1.56799996 -0.37900001 4.000000 26.750000 -6.380000
1.10249996 1.57149994 -0.37950000 6.000000 25.920000 -7.210000
1.10049999 1.57124996 -0.37775001 2.000000 18.260000 -15.200000
1.10300004 1.57149994 -0.37799999 3.000000 25.879999 -7.250000
1.09949994 1.57249999 -0.37900001 27.000000 18.980000 -14.470000
1.10200000 1.57350004 -0.37975001 4.000000 25.770000 -7.360000
1.10200000 1.57200003 -0.37875000 9.000000 23.520000 -9.940000
1.10000002 1.57500005 -0.37950000 3.000000 21.559999 -11.890000
1.10350001 1.57449996 -0.37900001 3.000000 25.629999 -7.500000
1.10099995 1.57350004 -0.37674999 9.000000 19.320000 -14.130000
1.10350001 1.57200003 -0.37625000 4.000000 25.639999 -7.490000
1.10224998 1.57474995 -0.37724999 10.000000 23.270000 -10.180000
1.10300004 1.57500005 -0.37775001 5.000000 25.480000 -7.650000
1.10350001 1.57500005 -0.37724999 6.000000 25.030001 -8.100000
1.10300004 1.57400000 -0.37625000 7.000000 23.510000 -9.940000
1.09525001 1.58025002 -0.38374999 1.000000 17.330000 -15.800000
1.09475005 1.57725000 -0.37825000 0.000000 11.210000 -21.920000
1.09850001 1.57650006 -0.38400000 8.000000 23.969999 -9.480000
1.09899998 1.57700002 -0.38249999 5.000000 23.330000 -10.120000
1.09774995 1.57799995 -0.38325000 2.000000 23.120001 -10.010000
1.09875000 1.57825005 -0.38400000 5.000000 24.459999 -8.670000
1.09949994 1.57799995 -0.38275000 4.000000 24.080000 -9.050000
1.09924996 1.57900000 -0.38225001 4.000000 22.389999 -10.740000
1.09975004 1.57650006 -0.38174999 5.000000 23.559999 -9.890000
1.09899998 1.57749999 -0.38049999 3.000000 21.950001 -11.500000
1.10099995 1.57799995 -0.38249999 7.000000 24.290001 -8.840000
1.10175002 1.57650006 -0.38124999 8.000000 24.990000 -8.140000
1.10074997 1.57624996 -0.38075000 4.000000 24.610001 -8.520000
1.10049999 1.57749999 -0.38100001 4.000000 24.500000 -8.950000
1.10099995 1.57875001 -0.38200000 5.000000 25.280001 -8.170000
1.10099995 1.57924998 -0.38150001 4.000000 23.420000 -9.720000
1.10074997 1.57949996 -0.38100001 7.000000 22.290001 -10.850000
1.10200000 1.57974994 -0.38075000 3.000000 23.969999 -9.170000
1.09825003 1.58000004 -0.38275000 5.000000 21.650000 -11.480000
1.09899998 1.58099997 -0.38299999 1.000000 24.969999 -8.480000
1.09599996 1.58375001 -0.38225001 2.000000 7.930000 -25.209999
1.09700000 1.58299994 -0.38225001 4.000000 13.310000 -19.830000
1.09899998 1.58350003 -0.38400000 1.000000 19.490000 -13.650000
1.09749997 1.58249998 -0.38100001 0.000000 13.020000 -20.120001
1.09825003 1.58225000 -0.38150001 0.000000 15.810000 -17.330000
1.10150003 1.58150005 -0.38325000 7.000000 26.340000 -7.110000
1.10000002 1.58074999 -0.38225001 4.000000 24.980000 -8.470000
1.10249996 1.58025002 -0.38225001 5.000000 26.400000 -7.050000
1.10049999 1.58274996 -0.38350001 4.000000 26.389999 -7.050000
1.10274994 1.58249998 -0.38325000 8.000000 27.299999 -6.150000
1.10150003 1.58025002 -0.38100001 5.000000 25.780001 -7.670000
1.10300004 1.58099997 -0.38124999 8.000000 26.780001 -6.670000
1.10200000 1.58299994 -0.38124999 2.000000 21.150000 -11.990000
1.10350001 1.58225000 -0.38025001 4.000000 27.160000 -6.280000
1.09675002 1.57924998 -0.37975001 4.000000 15.780000 -17.350000
1.10175002 1.57700002 -0.37924999 5.000000 24.910000 -8.220000
1.10175002 1.57774997 -0.37924999 7.000000 24.209999 -8.920000
1.10200000 1.57599998 -0.38000000 4.000000 25.309999 -7.820000
1.10325003 1.57650006 -0.37924999 3.000000 25.900000 -7.230000
1.10274994 1.57700002 -0.37825000 6.000000 26.090000 -7.360000
1.10300004 1.57725000 -0.37850001 5.000000 24.680000 -8.450000
1.10099995 1.57875001 -0.37950000 7.000000 24.809999 -8.640000
1.10150003 1.57949996 -0.37900001 3.000000 25.580000 -7.870000
1.10249996 1.57875001 -0.38000000 6.000000 26.430000 -7.020000
1.10374999 1.57949996 -0.37850001 6.000000 27.020000 -6.430000
1.10350001 1.57725000 -0.37700000 5.000000 25.920000 -7.530000
1.10000002 1.57900000 -0.37799999 4.000000 22.400000 -11.050000
1.10350001 1.57949996 -0.37799999 4.000000 23.830000 -9.310000
1.10374999 1.57875001 -0.37674999 5.000000 23.879999 -9.260000
1.09825003 1.58150005 -0.37825000 1.000000 11.520000 -21.610001
1.09949994 1.58175004 -0.37900001 3.000000 16.180000 -16.959999
1.10175002 1.58050001 -0.38000000 3.000000 22.450001 -10.690000
1.10049999 1.58099997 -0.37875000 1.000000 19.719999 -13.420000
1.10249996 1.58025002 -0.37875000 2.000000 22.650000 -10.490000
1.10300004 1.58124995 -0.37875000 5.000000 26.930000 -6.520000
1.10224998 1.58200002 -0.37950000 3.000000 21.530001 -11.610000
1.10350001 1.58375001 -0.37799999 1.000000 19.020000 -14.120000
1.09375000 1.57574999 -0.37599999 3.000000 6.260000 -26.870001
1.10175002 1.57350004 -0.37599999 3.000000 19.700001 -13.750000
1.10350001 1.57225001 -0.37450001 2.000000 20.180000 -13.270000
1.10374999 1.57474995 -0.37549999 4.000000 23.680000 -9.770000
1.10325003 1.57875001 -0.37549999 6.000000 21.870001 -11.260000
1.09825003 1.58099997 -0.37599999 0.000000 6.210000 -26.920000
1.10500002 1.56824994 -0.38225001 5.000000 28.160000 -4.970000
1.10525000 1.56875002 -0.38049999 5.000000 27.940001 -5.190000
1.10500002 1.57050002 -0.38025001 5.000000 27.520000 -5.610000
1.10574996 1.56924999 -0.37850001 6.000000 26.780001 -6.350000
1.10525000 1.57149994 -0.37850001 4.000000 26.469999 -6.660000
1.10500002 1.56949997 -0.37724999 4.000000 26.799999 -6.330000
1.10574996 1.56949997 -0.37625000 5.000000 27.420000 -5.710000
1.10675001 1.56974995 -0.37700000 3.000000 27.270000 -5.860000
1.10450006 1.57124996 -0.37775001 5.000000 26.420000 -6.710000
1.10874999 1.56900001 -0.37724999 9.000000 27.629999 -5.500000
1.10450006 1.57249999 -0.37924999 5.000000 26.170000 -6.960000
1.10475004 1.57474995 -0.37825000 4.000000 25.799999 -7.330000
1.10525000 1.57325006 -0.37724999 5.000000 25.639999 -7.490000
1.10675001 1.57325006 -0.37700000 6.000000 26.620001 -6.510000
1.10625005 1.57400000 -0.37625000 5.000000 25.920000 -7.210000
1.10625005 1.57525003 -0.37650001 8.000000 27.240000 -6.210000
1.10424995 1.58274996 -0.38100001 7.000000 27.940001 -5.500000
1.10650003 1.58274996 -0.38075000 6.000000 28.500000 -4.940000
1.10399997 1.57725000 -0.37750000 1.000000 24.770000 -8.360000
1.10574996 1.57650006 -0.37650001 4.000000 25.410000 -7.720000
1.10424995 1.57774997 -0.37650001 7.000000 26.080000 -7.370000
1.10775006 1.57700002 -0.37625000 4.000000 25.790001 -7.350000
1.10525000 1.57799995 -0.37674999 5.000000 24.889999 -8.250000
1.10625005 1.57875001 -0.37750000 7.000000 27.160000 -6.290000
1.10599995 1.58150005 -0.37924999 4.000000 27.590000 -5.860000
1.10500002 1.58274996 -0.37975001 3.000000 27.650000 -5.790000
1.10424995 1.58249998 -0.37875000 6.000000 27.930000 -5.510000
1.10399997 1.58375001 -0.37850001 3.000000 20.740000 -12.400000
1.10724998 1.58375001 -0.37975001 1.000000 27.820000 -5.620000
1.10650003 1.58350003 -0.37825000 5.000000 26.870001 -6.570000
1.10475004 1.58000004 -0.37724999 8.000000 27.070000 -6.380000
1.10450006 1.58175004 -0.37799999 5.000000 22.490000 -10.650000
1.10675001 1.58074999 -0.37650001 3.000000 27.070000 -6.380000
1.10500002 1.58274996 -0.37750000 3.000000 27.350000 -6.090000
1.10475004 1.58350003 -0.37750000 1.000000 20.730000 -12.410000
1.10549998 1.58299994 -0.37625000 4.000000 20.080000 -13.060000
1.10724998 1.58225000 -0.37750000 5.000000 26.549999 -6.890000
1.10800004 1.58200002 -0.37625000 5.000000 26.379999 -7.060000
1.10950005 1.58299994 -0.37625000 5.000000 26.629999 -6.810000
1.11125004 1.58350003 -0.37700000 7.000000 26.879999 -6.560000
1.10549998 1.56799996 -0.37474999 6.000000 26.730000 -6.400000
1.10625005 1.56799996 -0.37525001 6.000000 27.370001 -5.760000
1.10775006 1.56875002 -0.37424999 3.000000 26.820000 -6.310000
1.10625005 1.57149994 -0.37575001 4.000000 26.459999 -6.670000
1.10675001 1.57099998 -0.37474999 5.000000 26.469999 -6.660000
1.10699999 1.56875002 -0.37300000 9.000000 21.520000 -11.940000
1.10450006 1.57075000 -0.37375000 15.000000 20.240000 -13.220000
1.10500002 1.57149994 -0.37300000 2.000000 19.080000 -14.380000
1.11074996 1.56824994 -0.37549999 8.000000 27.889999 -5.240000
1.11025000 1.56900001 -0.37500000 3.000000 27.809999 -5.320000
1.10924995 1.56900001 -0.37400001 7.000000 27.040001 -6.090000
1.10975003 1.56850004 -0.37275001 3.000000 26.530001 -6.600000
1.11175001 1.56974995 -0.37375000 8.000000 27.440001 -5.690000
1.10950005 1.57050002 -0.37325001 3.000000 26.110001 -7.020000
1.10825002 1.57099998 -0.37400001 5.000000 26.580000 -6.550000
1.10450006 1.57474995 -0.37450001 4.000000 24.020000 -9.430000
1.10675001 1.57474995 -0.37599999 10.000000 27.170000 -6.280000
1.10599995 1.57424998 -0.37424999 7.000000 25.430000 -8.020000
1.10699999 1.57400000 -0.37500000 5.000000 26.290001 -6.840000
1.10699999 1.57474995 -0.37450001 5.000000 26.070000 -7.060000
1.10525000 1.57525003 -0.37325001 7.000000 22.990000 -10.460000
1.10650003 1.57574999 -0.37349999 4.000000 24.959999 -8.490000
1.10874999 1.57550001 -0.37450001 6.000000 26.490000 -6.650000
1.10950005 1.57400000 -0.37375000 5.000000 25.650000 -7.480000
1.10924995 1.57449996 -0.37349999 3.000000 25.920000 -7.210000
1.11000001 1.57550001 -0.37400001 6.000000 26.870001 -6.580000
1.11374998 1.56799996 -0.37450001 7.000000 27.690001 -5.440000
1.11275005 1.56875002 -0.37300000 6.000000 26.240000 -6.890000
1.10450006 1.57599998 -0.37525001 1.000000 24.770000 -8.360000
1.10500002 1.57725000 -0.37500000 4.000000 26.420000 -7.030000
1.10650003 1.57650006 -0.37525001 6.000000 25.510000 -7.620000
1.10599995 1.57675004 -0.37450001 4.000000 24.809999 -8.320000
1.10450006 1.57850003 -0.37575001 3.000000 23.959999 -9.180000
1.10699999 1.57799995 -0.37450001 4.000000 27.110001 -6.340000
1.10800004 1.57725000 -0.37599999 6.000000 26.799999 -6.650000
1.10850000 1.57850003 -0.37450001 2.000000 27.010000 -6.440000
1.10800004 1.57675004 -0.37375000 5.000000 27.100000 -6.350000
1.10874999 1.57650006 -0.37349999 6.000000 25.910000 -7.230000
1.10800004 1.57749999 -0.37400001 1.000000 25.450001 -7.690000
1.10650003 1.58000004 -0.37525001 6.000000 23.750000 -9.390000
1.10650003 1.58099997 -0.37424999 1.000000 21.290001 -11.850000
1.10525000 1.58200002 -0.37424999 3.000000 17.920000 -15.220000
1.10699999 1.58325005 -0.37575001 7.000000 21.670000 -11.470000
1.10899997 1.58074999 -0.37525001 6.000000 26.660000 -6.790000
1.10924995 1.58000004 -0.37424999 3.000000 24.809999 -8.330000
1.10975003 1.58074999 -0.37424999 7.000000 27.260000 -6.190000
1.10800004 1.58099997 -0.37474999 1.000000 23.420000 -9.720000
1.11150002 1.58025002 -0.37549999 7.000000 26.559999 -6.890000
1.11025000 1.58325005 -0.37549999 6.000000 26.770000 -6.670000
1.11049998 1.58000004 -0.37400001 4.000000 26.879999 -6.570000
1.11175001 1.58274996 -0.37400001 5.000000 26.889999 -6.550000
1.11199999 1.58200002 -0.37424999 7.000000 25.670000 -7.470000
1.11224997 1.58375001 -0.37500000 8.000000 26.820000 -6.620000
1.11350000 1.58299994 -0.37450001 6.000000 27.400000 -6.040000
1.09899998 1.58399999 -0.38350001 2.000000 17.559999 -15.580000
1.10175002 1.58475006 -0.38374999 5.000000 27.320000 -6.120000
1.10099995 1.58500004 -0.38299999 0.000000 19.290001 -13.850000
1.10325003 1.58399999 -0.38225001 1.000000 27.250000 -6.190000
1.10249996 1.58500004 -0.38249999 4.000000 21.000000 -12.140000
1.10274994 1.58774996 -0.38374999 5.000000 28.200001 -5.240000
1.10374999 1.58650005 -0.38299999 8.000000 28.350000 -5.090000
1.10175002 1.58475006 -0.38174999 3.000000 19.379999 -13.760000
1.10274994 1.58525002 -0.38049999 2.000000 19.490000 -13.650000
1.10350001 1.58599997 -0.37875000 1.000000 16.139999 -17.000000
1.10424995 1.58749998 -0.38350001 6.000000 28.840000 -4.600000
1.10525000 1.58675003 -0.38275000 5.000000 28.440001 -5.000000
1.10650003 1.58774996 -0.38350001 3.000000 28.969999 -4.470000
1.10625005 1.58599997 -0.38275000 9.000000 28.690001 -4.750000
1.10775006 1.58599997 -0.38249999 8.000000 28.750000 -4.690000
1.10549998 1.58424997 -0.38124999 4.000000 28.980000 -4.460000
1.10450006 1.58675003 -0.38124999 4.000000 28.580000 -4.860000
1.10675001 1.58650005 -0.38124999 4.000000 28.680000 -4.760000
1.10850000 1.58749998 -0.38325000 4.000000 28.330000 -5.110000
1.10899997 1.58700001 -0.38249999 5.000000 28.209999 -5.230000
1.11150002 1.58650005 -0.38249999 9.000000 28.420000 -5.020000
1.10924995 1.58574998 -0.38025001 8.000000 27.920000 -5.520000
1.10825002 1.58675003 -0.38124999 4.000000 28.400000 -5.040000
1.10975003 1.58700001 -0.38174999 7.000000 28.260000 -5.180000
1.11049998 1.58675003 -0.38100001 6.000000 28.190001 -5.250000
1.11150002 1.58949995 -0.38325000 5.000000 27.959999 -5.480000
1.11025000 1.58975005 -0.38299999 6.000000 28.090000 -5.350000
1.11150002 1.58924997 -0.38124999 4.000000 28.549999 -4.890000
1.10775006 1.58449996 -0.37825000 1.000000 26.540001 -6.900000
1.10749996 1.58650005 -0.38000000 5.000000 28.110001 -5.330000
1.10975003 1.58525002 -0.38000000 7.000000 27.450001 -5.990000
1.10950005 1.58475006 -0.37850001 4.000000 26.549999 -6.890000
1.10825002 1.58749998 -0.37875000 4.000000 27.010000 -6.430000
1.11125004 1.58650005 -0.38000000 5.000000 28.000000 -5.440000
1.11049998 1.58700001 -0.37875000 4.000000 27.320000 -6.120000
1.10850000 1.58574998 -0.37650001 7.000000 26.040001 -7.400000
